# .PCD v0.7 - Point Cloud Data file format
VERSION 0.7
FIELDS x y z
SIZE 4 4 4
TYPE F F F
COUNT 1 1 1
WIDTH 1295
HEIGHT 1
VIEWPOINT 0 0 0 1 0 0 0
POINTS 1295
DATA ascii
0.022723155 -0.010942724 0.030993944
-0.022738717 -0.0090830904 0.030971097
-0.0217053 -0.0090189343 0.03081087
0.021761829 -0.009044027 0.031058636
0.022710154 -0.0088794576 0.03109679
-0.022675904 -0.0070090503 0.030982012
-0.021752894 -0.0069690892 0.030843157
0.021713588 -0.0068619819 0.031047914
0.022685474 -0.0070466837 0.031045679
-0.02272957 -0.0050610788 0.03108497
-0.021801712 -0.0048876959 0.030912546
0.021816226 -0.0047555198 0.030912442
0.022704635 -0.0050643054 0.031155791
-0.022637468 -0.002998095 0.03106552
-0.021795454 -0.0028055459 0.030809857
0.021741141 -0.0029532535 0.0309189
0.022674264 -0.0030525613 0.03117043
-0.022702135 -0.00095040898 0.030955886
-0.021749299 -0.00084429001 0.030757366
0.021742456 -0.00087805081 0.030756196
0.02263465 -0.0010095657 0.031189717
-0.022663916 0.00099333469 0.031097872
-0.021730693 0.0012089933 0.031029232
0.021737942 0.00093533454 0.030865954
0.022664145 0.0010203485 0.031226441
-0.022553852 0.0030084648 0.031067209
-0.021777513 0.0030908564 0.030839507
0.021759562 0.0028362756 0.030658215
0.022597061 0.0031074756 0.031178238
-0.022661688 0.0050873859 0.031054987
-0.021743335 0.0050505013 0.031046106
0.021755435 0.0048789973 0.030713407
0.022657158 0.0051180907 0.031177139
-0.022626521 0.0070874617 0.031009661
-0.021760443 0.0069387159 0.030951777
0.021676883 0.0070067067 0.030745372
0.022671748 0.006947536 0.031155905
-0.022704538 0.0090755774 0.031028638
-0.021751061 0.0088257696 0.030915176
0.02166952 0.0090241497 0.031010253
0.022646328 0.0088937664 0.031120731
-0.022581831 0.01104637 0.031119002
-0.021771623 0.010984342 0.031015282
0.021651249 0.01111918 0.031022843
0.022633908 0.011076256 0.031099666
-0.022700962 0.013081218 0.031144544
-0.021802053 0.012928052 0.031003479
0.021707809 0.012828234 0.031017624
0.022627279 0.013139635 0.031042581
-0.022572145 0.01502847 0.031065078
-0.021772811 0.015133681 0.030992819
0.021680081 0.014803926 0.031106489
0.022612955 0.015045918 0.031100888
-0.022631288 0.017028095 0.030988712
-0.02175032 0.017157929 0.0310071
0.02171595 0.016983034 0.030934766
0.022659063 0.017131479 0.031037118
-0.022645755 0.018962272 0.031002263
-0.021771919 0.018959843 0.030994074
0.021692308 0.018912448 0.03102389
0.022624459 0.019108165 0.031103361
-0.022713112 0.021077305 0.030957606
-0.021754928 0.021116422 0.031133415
0.021710331 0.021119367 0.031069644
0.022648199 0.021162406 0.031007856
-0.02262626 0.02300276 0.030955059
-0.021765729 0.022976112 0.031126888
0.021664841 0.023166133 0.031135509
0.022633508 0.023060339 0.031046674
-0.022607977 0.025059296 0.030907188
-0.021767778 0.025075899 0.031126883
0.021733217 0.025127746 0.0312033
0.02260093 0.025072215 0.031043138
-0.022602441 0.027116541 0.030904589
-0.02174606 0.027014576 0.031084701
0.021647623 0.027091676 0.031013587
0.022614304 0.027000615 0.031010358
-0.022659658 0.02910113 0.030826807
-0.021787554 0.028895376 0.031109359
0.021665853 0.029130938 0.031165775
0.022641938 0.028900048 0.031046024
-0.022656329 0.03097111 0.030876556
-0.021769386 0.030827073 0.0310847
0.021691997 0.031067988 0.031157918
0.022602506 0.030946527 0.031067474
-0.022567976 0.033113185 0.030947097
-0.021758441 0.032898381 0.031059824
0.021701133 0.033201579 0.031313736
0.022552595 0.032986898 0.031068077
-0.022659618 0.035015509 0.03101135
-0.021793043 0.034943081 0.03107919
0.021722158 0.035296585 0.031106867
0.022602355 0.034889765 0.031036172
-0.022633636 0.036907408 0.031048378
-0.021777404 0.036821228 0.031087559
0.021676745 0.03704118 0.030975262
0.022599241 0.036876574 0.031056624
-0.022624733 0.038985696 0.031008488
-0.021757791 0.038813863 0.031082498
0.021771053 0.038948938 0.031154675
0.022598753 0.03899711 0.031049002
-0.022738913 0.040998533 0.03105679
-0.021797461 0.040946402 0.031054512
0.021714628 0.041016463 0.030843051
0.022595001 0.041018043 0.03115809
-0.022629784 0.043117058 0.031121254
-0.02177682 0.043101162 0.030982995
0.021732278 0.043073162 0.03100621
0.022558805 0.04305236 0.031122798
-0.022592075 0.045001026 0.031045217
-0.021741843 0.045012087 0.031114785
0.021756221 0.045015574 0.030967521
0.022607196 0.045029614 0.031169098
-0.022628617 0.046979763 0.031030541
-0.021754174 0.047058251 0.031104615
0.021737151 0.046946213 0.030771408
0.02264668 0.047065709 0.031209279
-0.022533678 0.0490603 0.030975163
-0.02177784 0.048979223 0.031021139
0.021774225 0.048961259 0.030716484
0.022610288 0.049004205 0.031102177
-0.022754693 0.050715808 0.031090736
-0.021229329 0.050772764 0.031012831
-0.018952651 0.051124889 0.030937402
0.018996472 0.051090796 0.030948272
0.021182844 0.05077346 0.031005597
0.02267395 0.05074599 0.03108862
-0.018759632 0.053248372 0.030920638
-0.017004294 0.053799354 0.03093164
-0.015025041 0.053794257 0.030936603
-0.012903873 0.053805277 0.030963816
-0.010936375 0.053790618 0.030914608
-0.0089643318 0.053800371 0.031073809
-0.0070300959 0.05376596 0.030883003
-0.0050249556 0.053788673 0.031019485
-0.0029876467 0.053782102 0.030967446
-0.00094425172 0.053796805 0.031020071
0.00087455288 0.053791452 0.030978212
0.0029822066 0.053794559 0.030946447
0.0050173267 0.053785719 0.031001939
0.0070308903 0.053784262 0.030932238
0.0089262789 0.053780638 0.031031398
0.011035359 0.053788763 0.030890752
0.013038156 0.053806793 0.030946041
0.015081559 0.053787995 0.030944275
0.017010905 0.053809594 0.030950654
0.0187418 0.053249933 0.031010076
-0.019078705 0.054103673 0.030943763
-0.017199736 0.054133438 0.031122906
-0.014834426 0.054097641 0.031001182
-0.013044284 0.05408024 0.030967858
-0.010934676 0.054094132 0.031046573
-0.008987627 0.054114953 0.030998386
-0.0071282014 0.05408169 0.030986577
-0.0049767126 0.054084856 0.030922856
-0.003111186 0.054093573 0.031097934
-0.001108301 0.05406921 0.030962519
0.0012094362 0.054059248 0.031006867
0.0029853156 0.054103486 0.031035431
0.0048852186 0.054086573 0.030971186
0.0070424308 0.054089539 0.030977048
0.0090336641 0.054119952 0.031005923
0.010901422 0.054078285 0.031008743
0.01311221 0.054090947 0.030989442
0.014959332 0.054094207 0.031051347
0.01710519 0.054131016 0.03106801
0.018651299 0.05412627 0.031142164
-0.018844288 -0.052189589 0.032948472
-0.016891694 -0.052169666 0.032883212
-0.015050145 -0.052201428 0.033018094
-0.012944963 -0.052181184 0.032947846
-0.010921151 -0.052203771 0.032970022
-0.009088696 -0.052188653 0.033048775
-0.0071333698 -0.052192129 0.033034906
-0.0050273188 -0.052190524 0.033019207
-0.0030411063 -0.052207235 0.033144973
-0.001119344 -0.052203208 0.032988951
0.00095297681 -0.05220912 0.032981168
0.0030131075 -0.052197658 0.033119451
0.0050454675 -0.052195895 0.033050392
0.0071729347 -0.052191634 0.033014391
0.0091095213 -0.05220069 0.033027343
0.010990294 -0.052192193 0.032992095
0.012956134 -0.052189153 0.032945659
0.015004676 -0.052188076 0.033017013
0.017003464 -0.052178454 0.032897096
0.018906154 -0.052164052 0.033065427
-0.019100478 -0.051039141 0.032931942
-0.016760429 -0.051906694 0.033018176
-0.015154318 -0.051899984 0.03312375
-0.013009639 -0.051896296 0.033215228
-0.010990209 -0.05192114 0.033056464
-0.0088853622 -0.051930472 0.033045314
-0.0069439895 -0.051878896 0.032796692
-0.0049279407 -0.051912881 0.032985225
-0.0028570034 -0.051902611 0.032891911
-0.0010751109 -0.051932991 0.033186715
0.0008156948 -0.051955208 0.03289533
0.0028662316 -0.051901087 0.032981444
0.0050620623 -0.051910475 0.032958101
0.0069081886 -0.051886484 0.03289023
0.0089131948 -0.051920325 0.032963794
0.011123485 -0.051917661 0.033072013
0.013003932 -0.05189861 0.033154599
0.015093246 -0.051900029 0.033138275
0.016907405 -0.051908035 0.03305823
0.019161602 -0.05101344 0.033190172
-0.022716407 -0.04881236 0.032929495
-0.021152347 -0.049055979 0.033059802
-0.019521818 -0.049269401 0.032985166
0.019334437 -0.049348235 0.032985982
0.020920154 -0.0490942 0.032960273
0.022660259 -0.048730195 0.032947242
-0.022687295 -0.046968017 0.033066966
-0.021653026 -0.047094047 0.033073526
0.021795737 -0.04703908 0.032887533
0.022744425 -0.046957757 0.032957844
-0.022691157 -0.044904798 0.033007946
-0.021683974 -0.045018647 0.033020154
0.021689294 -0.044778362 0.032924108
0.022644194 -0.044980392 0.033032771
-0.022726083 -0.042936329 0.033032626
-0.021665588 -0.043169405 0.033103723
0.021690113 -0.042982463 0.032816853
0.022698767 -0.04308195 0.033010744
-0.022734135 -0.040976021 0.033026066
-0.021710079 -0.041204404 0.033293296
0.021679727 -0.040880069 0.03289558
0.022691736 -0.041100405 0.033053726
-0.022710955 -0.038983144 0.033048764
-0.021689292 -0.039119221 0.033066846
0.021688715 -0.038758513 0.032721117
0.022710647 -0.039042749 0.03298445
-0.022667337 -0.036992926 0.03301895
-0.021657521 -0.037038807 0.033008371
0.021690693 -0.037049524 0.032992832
0.022700209 -0.036984332 0.032959711
-0.02259849 -0.035050131 0.033052109
-0.021698773 -0.034982156 0.033038948
0.021761378 -0.035063624 0.032873724
0.022692272 -0.035065945 0.033043291
-0.022701761 -0.033042967 0.032985825
-0.021670198 -0.032927271 0.032926746
0.02173743 -0.033178065 0.032766819
0.022703115 -0.033016402 0.033139672
-0.022727497 -0.030939661 0.032929234
-0.021687059 -0.030831464 0.033081308
0.021716267 -0.030957354 0.032823469
0.022689901 -0.030927582 0.033002157
-0.022686969 -0.029010665 0.032945227
-0.021724906 -0.028993269 0.032993212
0.021667406 -0.028630098 0.032667279
0.022736462 -0.028939992 0.032998037
-0.022765435 -0.027134391 0.03283044
-0.021709098 -0.027058702 0.032910701
0.021684865 -0.026840549 0.032796476
0.022653455 -0.02701669 0.033154458
-0.022718692 -0.025152458 0.032960687
-0.021730281 -0.024990851 0.032861449
0.021681879 -0.025021318 0.032979243
0.022679474 -0.024937335 0.033036046
-0.022736771 -0.023057468 0.032904882
-0.021755315 -0.02315033 0.032892983
0.021701528 -0.023166697 0.032750346
0.02274237 -0.022904366 0.032983027
-0.022731772 -0.021142147 0.03308212
-0.0216721 -0.021142658 0.03303666
0.021711478 -0.021221876 0.032953244
0.022750217 -0.021092536 0.033084579
-0.022693697 -0.019080415 0.032999862
-0.021767106 -0.018987402 0.032879289
0.021690249 -0.019089224 0.033027671
0.022716111 -0.019037012 0.03300152
-0.022768402 -0.016861713 0.033000581
-0.021794755 -0.01704466 0.03278565
0.02166309 -0.017090658 0.033098463
0.022760948 -0.016880663 0.033048186
-0.02264373 -0.014945092 0.033031531
-0.021753931 -0.015284147 0.032836292
0.021694122 -0.015239235 0.033123966
0.022737153 -0.015053373 0.033113051
-0.022716291 -0.013003403 0.033025436
-0.0217684 -0.013065485 0.032916922
0.021785947 -0.013161811 0.032976754
0.022709234 -0.013005937 0.033081997
-0.02267218 -0.011067903 0.033085436
-0.021746663 -0.010905459 0.032882426
0.021759452 -0.01081854 0.032955579
0.022629494 -0.01096289 0.03308956
-0.0227067 -0.0091355294 0.03299313
-0.021804253 -0.0089952946 0.032954458
0.021700904 -0.0090363296 0.032993004
0.022633672 -0.0089507159 0.033063013
-0.022680964 -0.0072355918 0.033025671
-0.021722548 -0.0071075466 0.032905508
0.021736326 -0.0072573279 0.032929726
0.022643214 -0.0071069561 0.033040594
-0.022668729 -0.005152897 0.032984734
-0.021813629 -0.0049904427 0.033045642
0.02171923 -0.0049845376 0.032966789
0.022676963 -0.0050168908 0.033127513
-0.022675 -0.0030202724 0.033055738
-0.021740563 -0.0028453118 0.032853704
0.02166797 -0.0027644034 0.032993864
0.022648782 -0.0029652545 0.033156529
-0.022661725 -0.0009488287 0.033126377
-0.021728931 -0.00084996322 0.03284518
0.021748859 -0.0006471941 0.032965235
0.022602141 -0.00097317196 0.033225533
-0.022627473 0.00080122991 0.033206854
-0.021780869 0.00079662009 0.033017013
0.021682138 0.0010915693 0.032893397
0.022693744 0.00093712797 0.033106897
-0.022657022 0.0028836259 0.033136684
-0.021754714 0.0029218551 0.033148818
0.021768399 0.0029350736 0.033005606
0.022655228 0.0029758287 0.033081532
-0.02271108 0.0049918871 0.033146903
-0.021768665 0.0049243211 0.033088077
0.02166952 0.005182106 0.03323276
0.022668233 0.0051122983 0.033096399
-0.022715338 0.0070236572 0.033181071
-0.021793945 0.0070280214 0.033182442
0.021790486 0.0072614932 0.033097848
0.022707973 0.0071302806 0.033026982
-0.022721821 0.0089447536 0.03303827
-0.021762783 0.0088832946 0.033263274
0.021736857 0.0091367206 0.033087447
0.022634564 0.0090642888 0.033047032
-0.022578195 0.010940797 0.033136711
-0.021729609 0.010987304 0.033315353
0.021832172 0.010847035 0.033187978
0.022626586 0.01103611 0.033055872
-0.022751728 0.012948561 0.032995872
-0.021700816 0.012940268 0.033383667
0.021780528 0.012663634 0.033152785
0.02258683 0.013172707 0.033002347
-0.022606099 0.015022331 0.033008244
-0.021708138 0.015068396 0.033264447
0.021711273 0.014923819 0.033041272
0.02267083 0.014986622 0.033033133
-0.022579627 0.016937448 0.032999542
-0.021679129 0.017032092 0.03306083
0.02170077 0.017134668 0.032975785
0.022605767 0.016932877 0.03304245
-0.022623522 0.018930187 0.033003602
-0.021710467 0.01895 0.033058908
0.021717491 0.018792592 0.033127379
0.02267419 0.018986002 0.033092394
-0.022616033 0.021014983 0.032894183
-0.021754744 0.021141956 0.03317719
0.021679902 0.02095137 0.033127576
0.022685669 0.021006232 0.033112403
-0.022606336 0.022900382 0.033062439
-0.021703392 0.023128213 0.032974977
0.021733597 0.022843644 0.033234794
0.022632413 0.022873031 0.033080533
-0.022566473 0.024909429 0.032992374
-0.021709893 0.025207069 0.033041123
0.021684129 0.024850275 0.033066742
0.022626456 0.02496619 0.033051629
-0.02258867 0.027004907 0.03292812
-0.021754663 0.027201692 0.033024102
0.021746697 0.02702851 0.032999665
0.02253817 0.027082659 0.033061225
-0.022675056 0.029027496 0.03290011
-0.021731112 0.02905713 0.033046115
0.021748038 0.029013693 0.033042815
0.02257397 0.029053776 0.033050068
-0.022611039 0.030959709 0.032925665
-0.021735661 0.031041048 0.033094972
0.021730611 0.031058079 0.032919321
0.022658275 0.031001186 0.032965608
-0.022598671 0.03305779 0.032985605
-0.021723092 0.033065733 0.032948323
0.021751218 0.033044286 0.032959193
0.022592548 0.033051204 0.033017993
-0.02253899 0.035048865 0.032896504
-0.02176981 0.03515159 0.033010114
0.02171471 0.035148814 0.032934375
0.022526018 0.035150107 0.0330038
-0.02257867 0.036995336 0.032960098
-0.021728553 0.036941878 0.032914229
0.021739652 0.03701257 0.032936599
0.022526212 0.03706681 0.033025727
-0.02260335 0.039042179 0.032888129
-0.021749906 0.038892649 0.032893095
0.021758996 0.038879596 0.032936204
0.022573542 0.038935989 0.032981031
-0.022615084 0.041055594 0.032964211
-0.021765968 0.041034151 0.032955945
0.021706633 0.041000012 0.032952838
0.022599852 0.040892612 0.033035919
-0.022524251 0.043088719 0.032961119
-0.021715209 0.043067921 0.033015989
0.021727374 0.043067664 0.032977618
0.022553334 0.043000359 0.033025231
-0.022644142 0.045019653 0.032916348
-0.021747401 0.044876676 0.033012673
0.02174462 0.044999942 0.032937784
0.02257205 0.045026205 0.033068929
-0.022580296 0.04699583 0.033078607
-0.021729855 0.046820361 0.033090297
0.021735761 0.046921242 0.032874119
0.02265108 0.046978772 0.033078492
-0.022522399 0.049059276 0.032978967
-0.021779604 0.048921324 0.033003561
0.021714693 0.048884869 0.032950804
0.022536419 0.048941154 0.03305424
-0.022660507 0.050693192 0.032974891
-0.021116972 0.0508225 0.033079673
-0.018961202 0.051056843 0.03310452
0.019058509 0.051154248 0.033026323
0.021203991 0.050819553 0.033069354
0.0227111 0.05071307 0.033097461
-0.018730767 0.053252272 0.033042263
-0.017054614 0.053814098 0.032825872
-0.01504761 0.053808965 0.032999512
-0.013010232 0.053806137 0.032886729
-0.010934617 0.053797893 0.033025008
-0.009045233 0.053822268 0.033024974
-0.0070552761 0.053790353 0.032904983
-0.0051157768 0.053815234 0.032953996
-0.0030694299 0.053794805 0.033123601
-0.001131343 0.053790491 0.033047855
0.00098978984 0.053789783 0.032986689
0.0029593378 0.053798825 0.033081565
0.0049654446 0.053806555 0.033042472
0.0069713569 0.053806085 0.032884378
0.009017352 0.05380474 0.033013128
0.010936872 0.053805016 0.032957848
0.013027352 0.053805798 0.032948907
0.015055154 0.053809404 0.032933179
0.017081233 0.053801592 0.032889977
0.018739775 0.053280182 0.033038381
-0.018919528 0.05412655 0.032849222
-0.016901594 0.05409807 0.032955453
-0.015154688 0.054098796 0.03296585
-0.01293598 0.054098174 0.032962769
-0.011031889 0.0541046 0.032953691
-0.0090591079 0.054086223 0.033007059
-0.0069953231 0.054094251 0.032912191
-0.0048273271 0.054072928 0.032957692
-0.0030158339 0.054081988 0.032997645
-0.0010333851 0.054077562 0.032994941
0.00094787864 0.05408689 0.032897804
0.0029504234 0.054095324 0.033041298
0.0047700405 0.054074723 0.032904264
0.006903233 0.05409307 0.033020463
0.0090518957 0.0540867 0.032981075
0.011090966 0.054096386 0.032977771
0.013032261 0.054098658 0.03298185
0.015145997 0.054094404 0.032947656
0.016622178 0.054103598 0.033013057
0.018746596 0.054101761 0.033017989
-0.018846119 -0.052240264 0.034992334
-0.017021945 -0.052204229 0.034817193
-0.015019095 -0.052208092 0.03505668
-0.013048348 -0.052215349 0.034952082
-0.010949984 -0.052211788 0.035028841
-0.0089404453 -0.052190538 0.034953419
-0.0069846199 -0.052239161 0.035080913
-0.0049454225 -0.052200638 0.03498951
-0.0030703603 -0.052225437 0.034999389
-0.0010970763 -0.052215792 0.035051182
0.0009434864 -0.052224431 0.035067022
0.0029937727 -0.052205488 0.035006743
0.0050154664 -0.052213155 0.034987774
0.007080928 -0.052236807 0.035101153
0.0090382844 -0.052199494 0.034945689
0.011019863 -0.052213889 0.035037879
0.013021912 -0.052222192 0.034979656
0.015004489 -0.052201454 0.035012111
0.017048188 -0.052198105 0.034834791
0.018831637 -0.05217699 0.034992993
-0.019123986 -0.051101822 0.034945868
-0.017120337 -0.051862296 0.03498343
-0.015106128 -0.051887296 0.034999497
-0.013103788 -0.051888555 0.034931853
-0.010859543 -0.051902484 0.034780491
-0.0089739691 -0.051898003 0.035037506
-0.0070404899 -0.051902857 0.0351029
-0.0051050349 -0.05190669 0.034980867
-0.0031273649 -0.051926788 0.034920424
-0.0010808724 -0.051914681 0.035053391
0.00092815474 -0.051897522 0.035100371
0.0030259725 -0.051930256 0.034900859
0.0049105058 -0.051911376 0.035043873
0.007054734 -0.051897686 0.035084527
0.0090690991 -0.051896602 0.034996651
0.010936443 -0.051905561 0.034793481
0.01307328 -0.051892515 0.035025712
0.015097436 -0.051890284 0.034925304
0.017112818 -0.051853918 0.034965329
0.019119844 -0.05108818 0.03508462
-0.022647304 -0.048796628 0.03502981
-0.021093199 -0.049067464 0.034995776
-0.019403802 -0.049269158 0.034988001
0.019327858 -0.049361251 0.034955855
0.021048453 -0.049069215 0.034964506
0.022653829 -0.048710831 0.035043735
-0.02268883 -0.04708707 0.034792006
-0.021699714 -0.047243107 0.034878407
0.021663411 -0.047001746 0.034716696
0.022669498 -0.046989098 0.034938879
-0.022711949 -0.045091841 0.034791697
-0.021758763 -0.044969805 0.034841143
0.021676464 -0.044947263 0.034905352
0.022747917 -0.044937115 0.035040982
-0.022714544 -0.043082837 0.034883551
-0.021792857 -0.042797323 0.034994636
0.021678548 -0.04309573 0.034722783
0.022696914 -0.042999092 0.035015922
-0.022666071 -0.041052148 0.034929577
-0.021715395 -0.040876824 0.035110544
0.021708075 -0.041018248 0.035005115
0.022718595 -0.041031726 0.03501264
-0.022726839 -0.038923658 0.034930814
-0.021754032 -0.038959321 0.034981929
0.021666139 -0.038949288 0.034841843
0.022717511 -0.039009035 0.035018984
-0.022723079 -0.036889888 0.034882925
-0.02176109 -0.037087504 0.034944218
0.021701446 -0.037012588 0.035003144
0.022651903 -0.037020326 0.035097521
-0.022685362 -0.034936819 0.034875136
-0.021731189 -0.035059687 0.035141997
0.021771401 -0.034987222 0.035088789
0.022683082 -0.035035819 0.03499807
-0.022662435 -0.032937381 0.034999527
-0.021743685 -0.033110417 0.034995385
0.021685306 -0.033104684 0.035014495
0.022752997 -0.03301267 0.034998801
-0.022716923 -0.030914309 0.034944508
-0.021704029 -0.031138811 0.035071336
0.021743037 -0.031018725 0.034963403
0.022716042 -0.030929754 0.035019957
-0.022718338 -0.029056085 0.034928743
-0.021668004 -0.028895883 0.035040148
0.021702975 -0.028978532 0.034959324
0.022736415 -0.029046191 0.035109732
-0.022732463 -0.027068 0.034973882
-0.021771934 -0.026978221 0.034867689
0.021692544 -0.027018452 0.034913685
0.022724649 -0.027115325 0.035050448
-0.022696108 -0.025032159 0.035012163
-0.021722792 -0.025059059 0.035141826
0.021812111 -0.02494519 0.034777205
0.022733567 -0.024939371 0.034997221
-0.022683214 -0.023047592 0.035034411
-0.021724219 -0.02304172 0.035058454
0.021742463 -0.023070525 0.034769531
0.022727333 -0.022914201 0.034901466
-0.022691365 -0.020986991 0.035067715
-0.02171479 -0.02089324 0.03514744
0.021727614 -0.021172 0.034930173
0.022667151 -0.021183802 0.034940779
-0.022654675 -0.018984532 0.035015587
-0.021758499 -0.018992219 0.035020404
0.021757571 -0.019218517 0.034787685
0.022691447 -0.019022759 0.03491671
-0.022731079 -0.016910568 0.035015944
-0.021722412 -0.016991384 0.034930564
0.021746406 -0.017074268 0.03482249
0.02273527 -0.016943572 0.034847677
-0.02270489 -0.015070644 0.035049327
-0.021771481 -0.014964351 0.035005588
0.02170261 -0.014908655 0.034805279
0.02279162 -0.015031423 0.034954894
-0.022708289 -0.013069369 0.035063889
-0.021766182 -0.013012024 0.034847736
0.021754809 -0.012903988 0.034950972
0.022730703 -0.012914092 0.034908075
-0.022698876 -0.011027524 0.035024188
-0.021758486 -0.011012441 0.034967672
0.021729728 -0.011053479 0.034886882
0.022700964 -0.010884852 0.03484429
-0.022714842 -0.0090159895 0.035020374
-0.021741331 -0.008950281 0.034916654
0.02167527 -0.0090684267 0.035089392
0.022736264 -0.00896182 0.034961808
-0.022705222 -0.0070062876 0.03495403
-0.021738671 -0.0068773474 0.034960095
0.021718845 -0.0071096788 0.034890324
0.022745976 -0.007137083 0.034887474
-0.022738252 -0.0049135382 0.034959156
-0.021748159 -0.0049884575 0.034934092
0.021761347 -0.005005978 0.034947667
0.022751832 -0.0050775036 0.034991153
-0.022696028 -0.0029713388 0.034961745
-0.021713635 -0.0030092574 0.034954783
0.02174993 -0.0030093321 0.034978714
0.022676682 -0.0029673544 0.034972548
-0.022713203 -0.0010466116 0.034956165
-0.021721736 -0.0011019679 0.034926936
0.021731026 -0.0011415377 0.03486279
0.022648336 -0.0010107475 0.034978401
-0.022671144 0.00089034421 0.03493328
-0.0216977 0.00090628787 0.03500415
0.021735489 0.00088884501 0.034716226
0.022739479 0.00085701578 0.035016146
-0.022587541 0.0030092751 0.034895763
-0.02168683 0.0028223672 0.034965519
0.021748623 0.0029960324 0.034579776
0.022659477 0.0029663567 0.034972161
-0.022652101 0.0051129116 0.034902774
-0.021694602 0.0051378761 0.034988146
0.021727357 0.0049471883 0.034723897
0.02270937 0.0049952418 0.035019524
-0.022645114 0.0071359053 0.034874316
-0.02176732 0.0070122099 0.034931157
0.021686139 0.0070856577 0.034599598
0.022645455 0.0070177414 0.034947224
-0.022650756 0.0089677572 0.034806494
-0.021713652 0.0091460012 0.034881353
0.021678559 0.0089749508 0.034685884
0.022643894 0.0089972932 0.035001356
-0.022604803 0.011040833 0.034903497
-0.02177733 0.011215035 0.035004053
0.021706168 0.011065556 0.034918368
0.022652142 0.010992333 0.034987893
-0.022640726 0.013176265 0.034963023
-0.021744715 0.01313942 0.035159241
0.021722825 0.01298436 0.03489349
0.022675063 0.012957818 0.034976084
-0.022682261 0.014971951 0.03492859
-0.021791114 0.014907372 0.03506447
0.021678703 0.015082238 0.034957226
0.022612147 0.014893861 0.034941886
-0.022650419 0.017010495 0.035038602
-0.021758279 0.016844133 0.035085671
0.021670761 0.017061107 0.035041999
0.022647768 0.016888713 0.03494807
-0.022645906 0.019018838 0.034972578
-0.021755997 0.018862281 0.035099391
0.021698069 0.018951772 0.035034947
0.022620333 0.018967317 0.034973513
-0.022713536 0.02099606 0.035031345
-0.021701375 0.021070573 0.035040505
0.021741241 0.021022437 0.035139214
0.022663631 0.02105925 0.034960333
-0.022693342 0.022895662 0.03501479
-0.021704387 0.023180015 0.034951881
0.021704407 0.023120085 0.034932647
0.022603877 0.023004541 0.034971841
-0.022596313 0.025003836 0.035036515
-0.02172925 0.025003675 0.035051778
0.021718331 0.025025934 0.035072234
0.022612048 0.024990071 0.034904677
-0.022598982 0.027101684 0.035048157
-0.021746205 0.027129075 0.035047885
0.021702301 0.027113019 0.034926053
0.022722317 0.027078735 0.034923941
-0.022638233 0.029045375 0.03500095
-0.021740615 0.029179946 0.035142627
0.021798663 0.029017145 0.034780011
0.022602081 0.028955776 0.034937657
-0.02260272 0.030975325 0.03506704
-0.021726929 0.031004453 0.035045534
0.021715619 0.03090422 0.034812845
0.022681173 0.030862423 0.034885477
-0.022638064 0.032940466 0.035077184
-0.021755757 0.032988142 0.034999743
0.021733174 0.03304179 0.034862187
0.022652291 0.03305275 0.034894299
-0.022706188 0.035033967 0.035020102
-0.021757577 0.034879833 0.035103362
0.021754714 0.034945156 0.034968019
0.022628617 0.035079431 0.034900744
-0.02252494 0.037009191 0.035005517
-0.021725329 0.036915824 0.035011861
0.021738222 0.037079856 0.034940373
0.022619374 0.036927711 0.034912147
-0.022597054 0.039007477 0.034920394
-0.021736505 0.038960155 0.035031583
0.02172807 0.03917744 0.035092752
0.022616887 0.038974784 0.034922875
-0.022621011 0.041006863 0.034957018
-0.021756519 0.040950201 0.035078291
0.021729881 0.041200429 0.035025965
0.022622127 0.040993717 0.034872167
-0.022539429 0.04295351 0.034956411
-0.021735664 0.043037582 0.035007685
0.021750342 0.043174919 0.034992002
0.02256617 0.04309354 0.034999326
-0.022624891 0.045011122 0.034894045
-0.021755025 0.044890929 0.034873642
0.021731712 0.044922072 0.035083234
0.022646185 0.045089502 0.035025153
-0.022661109 0.047058817 0.034942545
-0.021776078 0.046727233 0.035068549
0.021758098 0.046962216 0.034872022
0.022568868 0.04697236 0.034933459
-0.022542186 0.048986707 0.034873903
-0.02176165 0.048803899 0.035032045
0.021758107 0.048970979 0.034949359
0.022552913 0.048970051 0.035013385
-0.022670135 0.050665472 0.03489856
-0.021158146 0.050712958 0.034925934
-0.018957315 0.051184651 0.034929559
0.019013694 0.051131647 0.034977488
0.021234946 0.050827239 0.034954764
0.02265176 0.050679311 0.035017781
-0.018688561 0.05329781 0.034976535
-0.016889436 0.053808536 0.034785014
-0.014959401 0.053787712 0.034889195
-0.012961743 0.053793382 0.03487033
-0.010871381 0.053786214 0.034913223
-0.0089727063 0.053799268 0.034928363
-0.0070333229 0.053779487 0.034921482
-0.0048968531 0.053788643 0.034943603
-0.0031037079 0.053777207 0.034926727
-0.0010991851 0.053795598 0.035031751
0.0010452328 0.053782415 0.034929629
0.0029725709 0.053793892 0.035014115
0.0048945793 0.053787958 0.034920417
0.0070646317 0.053794645 0.034937344
0.0089742923 0.053776134 0.034900755
0.010969122 0.053790666 0.03491424
0.013041492 0.05378918 0.034896154
0.015059499 0.0537857 0.034885183
0.016980415 0.053803772 0.034803886
0.018714631 0.053246636 0.034980029
-0.01869824 0.05410203 0.034867447
-0.017138148 0.054090198 0.034931276
-0.015005669 0.054115325 0.035021454
-0.013077867 0.054080907 0.034937318
-0.010880456 0.054102946 0.035072673
-0.0090703852 0.054084912 0.034919009
-0.0070408904 0.054069225 0.034797106
-0.0050746291 0.05411689 0.034854963
-0.0029150671 0.054071028 0.034986943
-0.00086199917 0.05408591 0.035047587
0.0008277602 0.054094072 0.035015948
0.0030351188 0.054069255 0.035042055
0.0050475718 0.054116223 0.034861807
0.0069658794 0.054081537 0.034850284
0.0091307824 0.054078542 0.034870245
0.010924621 0.054100726 0.035118256
0.013005069 0.054084651 0.034954146
0.014971641 0.054110277 0.034962866
0.017016564 0.054086994 0.035024706
0.018710459 0.054103818 0.034796026
-0.01870287 -0.052241128 0.037228249
-0.016967801 -0.052201055 0.037003744
-0.015089637 -0.052240778 0.037154272
-0.013059057 -0.0522005 0.037118137
-0.010960105 -0.052215755 0.037143767
-0.0090067182 -0.052199975 0.037044883
-0.0070364946 -0.05221992 0.037175313
-0.0050463518 -0.052198283 0.03708126
-0.0030837695 -0.052216303 0.037091784
-0.0010139 -0.052216679 0.037151303
0.00090870308 -0.052228063 0.03714991
0.0029839699 -0.052206747 0.037108541
0.005009912 -0.052212808 0.037072275
0.0070168478 -0.052222513 0.03717345
0.0089801317 -0.052197702 0.037079565
0.011058383 -0.052217953 0.037120689
0.013033299 -0.052209083 0.037097842
0.015025388 -0.052222896 0.037171483
0.017052144 -0.052206933 0.037010036
0.01871012 -0.052182458 0.037061341
-0.019136269 -0.051154818 0.037130155
-0.017033447 -0.051948205 0.037020124
-0.014962785 -0.051909931 0.036873158
-0.013129521 -0.051902283 0.036845267
-0.011010597 -0.051900197 0.037031177
-0.0089205112 -0.051898409 0.037011541
-0.0069403523 -0.051900595 0.036995385
-0.0049359226 -0.051926691 0.037312951
-0.0030660201 -0.051896434 0.037003808
-0.0012090659 -0.05191962 0.037037842
0.0011033707 -0.051933788 0.036873553
0.002911635 -0.051880438 0.037138168
0.0047974014 -0.051935274 0.037183784
0.0069686072 -0.051909976 0.036971316
0.008977429 -0.051889606 0.037025053
0.010935878 -0.051898595 0.037033055
0.012993879 -0.051908012 0.036863234
0.014962196 -0.051898915 0.036906715
0.016931467 -0.051949047 0.036899842
0.019135986 -0.051113561 0.036977272
-0.022689722 -0.04881198 0.037135802
-0.021181149 -0.049054254 0.037106868
-0.019455578 -0.049248561 0.037013538
0.01940636 -0.04926182 0.036950711
0.021048697 -0.049134813 0.037154451
0.022684678 -0.048767548 0.037110146
-0.022732766 -0.047085788 0.036945336
-0.021726172 -0.047190618 0.037029788
0.02162735 -0.047136772 0.03713594
0.022663673 -0.047018912 0.037115537
-0.022728266 -0.045013353 0.036977403
-0.021758338 -0.045083065 0.037054747
0.02180695 -0.045027081 0.037102342
0.022631187 -0.044986542 0.037058346
-0.022675144 -0.043112084 0.036923356
-0.021773933 -0.042738076 0.037108354
0.0217112 -0.04305936 0.037238572
0.022685504 -0.043050252 0.037114639
-0.022637596 -0.041071139 0.036972418
-0.021565171 -0.041189183 0.03698498
0.021758808 -0.041003998 0.037259519
0.022652406 -0.041052893 0.03714041
-0.02266464 -0.038926996 0.036922608
-0.021722984 -0.039149445 0.036901496
0.021686146 -0.039081793 0.036997307
0.022670908 -0.038955249 0.037080992
-0.022649156 -0.036840286 0.037001994
-0.021714386 -0.037102569 0.037011057
0.021774031 -0.037162188 0.037166152
0.02271766 -0.036977727 0.037125561
-0.022707192 -0.034840319 0.037001513
-0.021730427 -0.035090353 0.037124522
0.021730728 -0.034953613 0.037205942
0.022720326 -0.035110392 0.037070561
-0.022659333 -0.032922015 0.036939252
-0.021769825 -0.032790456 0.037091333
0.021761721 -0.032768086 0.037121732
0.022685131 -0.032996189 0.037040226
-0.022673273 -0.030849002 0.037138402
-0.021701846 -0.030832866 0.037006386
0.021709738 -0.030623699 0.037140068
0.02267503 -0.030925905 0.037041944
-0.022686908 -0.028853416 0.037139475
-0.021848118 -0.028933117 0.037109304
0.021716308 -0.028763164 0.037052862
0.022691941 -0.028993391 0.037023619
-0.022630546 -0.026960352 0.037007079
-0.021717545 -0.027081329 0.037192442
0.021785779 -0.026989968 0.037038743
0.022664769 -0.026947699 0.037030496
-0.022667868 -0.024989646 0.037128434
-0.021695059 -0.025053309 0.037377752
0.021778971 -0.025157182 0.036833532
0.022648249 -0.02499578 0.036993504
-0.022714501 -0.023071282 0.037095986
-0.021782519 -0.02324439 0.037241288
0.021717779 -0.023464995 0.036749601
0.022719024 -0.023035794 0.036921728
-0.022636127 -0.021086343 0.037098937
-0.021731019 -0.021045756 0.037304405
0.021801846 -0.021202564 0.036625922
0.022680733 -0.021008512 0.03691553
-0.022621829 -0.018898012 0.037116311
-0.021720815 -0.019079534 0.037217192
0.021670939 -0.019207202 0.036729176
0.022647237 -0.018902138 0.036883239
-0.022731842 -0.01692152 0.037124459
-0.021736097 -0.017015509 0.037182551
0.021751687 -0.017155789 0.036870763
0.022670202 -0.01681303 0.036885317
-0.022712829 -0.015065962 0.037188206
-0.02171839 -0.014917944 0.037160978
0.021704145 -0.015003891 0.036886439
0.022745999 -0.015071585 0.036953278
-0.02265401 -0.01315707 0.037159987
-0.021757171 -0.013100246 0.037095528
0.021740032 -0.01297904 0.036817975
0.022688745 -0.013142943 0.036853984
-0.022625525 -0.011031277 0.037110087
-0.021736013 -0.010946171 0.037005331
0.021781014 -0.010885239 0.036923554
0.022698469 -0.011110096 0.036938146
-0.022630824 -0.0089826686 0.037094966
-0.021748599 -0.0088693965 0.037015758
0.021747949 -0.008947744 0.036916312
0.022733709 -0.0089527881 0.03695691
-0.02269958 -0.0069642328 0.037084766
-0.021741964 -0.0068833553 0.037035584
0.021682806 -0.006964514 0.036874633
0.022695515 -0.0069916751 0.036976717
-0.022603564 -0.0050277496 0.037142795
-0.021775316 -0.0051316037 0.03709808
0.02172203 -0.0048130541 0.036914561
0.022667408 -0.0050229467 0.036950536
-0.022657908 -0.002921287 0.03713857
-0.021794463 -0.002960016 0.037021011
0.021732146 -0.0028933163 0.036916036
0.022676717 -0.0029891224 0.036927257
-0.022694493 -0.00094059441 0.037116624
-0.021710653 -0.00097651419 0.037089534
0.021706758 -0.0010444763 0.037068803
0.022696193 -0.0011122015 0.036975481
-0.022630569 0.0010952133 0.037062664
-0.021742487 0.0010005978 0.03700418
0.021708259 0.0009140725 0.036938448
0.0227459 0.0010193906 0.037048597
-0.022640727 0.0030776856 0.036991205
-0.021744084 0.0028543423 0.037120409
0.021720376 0.0029656834 0.036958389
0.022661058 0.0030890419 0.037042797
-0.022695715 0.0051175761 0.037047274
-0.021755215 0.0049416809 0.037020035
0.021743722 0.0050131581 0.036930729
0.022710998 0.0051112482 0.036967482
-0.022682745 0.0070049241 0.036986232
-0.021699108 0.0070486497 0.037108943
0.021742817 0.0069799251 0.037115227
0.022645773 0.0070642168 0.036981758
-0.022770096 0.0089330766 0.037049554
-0.02174685 0.008967706 0.037122369
0.021749545 0.0088425344 0.037002299
0.022752099 0.0091160536 0.036982726
-0.022607375 0.011070189 0.037044063
-0.021713253 0.01114668 0.037159715
0.021782532 0.010837456 0.036988486
0.022586785 0.011090309 0.036972728
-0.022686634 0.013050126 0.037034258
-0.021759203 0.013044122 0.037181664
0.021761175 0.01294349 0.036839869
0.022686485 0.013142647 0.037042353
-0.022603566 0.014993834 0.037081428
-0.021681039 0.015133244 0.037199359
0.021748092 0.015221214 0.037059054
0.022576906 0.014882347 0.036958233
-0.022601757 0.017026544 0.037042424
-0.021719325 0.016948065 0.037195094
0.021732844 0.017144229 0.036842339
0.022649154 0.01692941 0.037013866
-0.022603329 0.019047432 0.037123337
-0.021718802 0.018885767 0.037057832
0.0217051 0.018939968 0.036815997
0.02259043 0.019016022 0.03706171
-0.022655714 0.021030966 0.037194371
-0.0217229 0.021197775 0.037039768
0.021693666 0.020986961 0.036859211
0.022563595 0.021070808 0.036983065
-0.022621958 0.022935081 0.037185881
-0.021693371 0.023027461 0.037177652
0.021666285 0.022949396 0.03677921
0.022632157 0.022966089 0.036977399
-0.022641961 0.02506689 0.037165176
-0.02172921 0.025012059 0.037113409
0.021720545 0.024719441 0.036769308
0.022568552 0.024960926 0.036994617
-0.022592049 0.027095014 0.03710863
-0.021787215 0.027137175 0.037088446
0.021706 0.026859539 0.036863502
0.022568755 0.026959043 0.036919143
-0.022685319 0.029023206 0.03712023
-0.021731867 0.029065691 0.037032533
0.021686997 0.028877372 0.036547463
0.022643879 0.029083189 0.036946621
-0.022650158 0.03092695 0.037082668
-0.021746522 0.030992346 0.0371828
0.021698091 0.030911546 0.036872368
0.02260395 0.03105008 0.036945906
-0.02261785 0.033065375 0.037161324
-0.021720584 0.032930374 0.03724087
0.021718906 0.032933775 0.036930442
0.022584146 0.032964859 0.036876686
-0.022663271 0.035167124 0.037130453
-0.021738593 0.035113487 0.037127793
0.021715678 0.035061296 0.03682432
0.02259138 0.035110109 0.036910996
-0.02255109 0.037061103 0.037141468
-0.021737799 0.037001397 0.037101366
0.021726979 0.036919102 0.036787797
0.022617215 0.037139978 0.036904857
-0.022650205 0.039009437 0.037140578
-0.021732341 0.038929526 0.03712666
0.021733735 0.038843017 0.036947928
0.022661861 0.038957171 0.036955494
-0.02265216 0.040962461 0.037116028
-0.021749426 0.040926304 0.037045967
0.021767359 0.040867869 0.03706691
0.022679139 0.040890146 0.036921907
-0.022547852 0.043038893 0.037062615
-0.021780761 0.042896502 0.037043527
0.02174218 0.043014314 0.037089366
0.022644019 0.042960342 0.037018828
-0.022616282 0.044940565 0.037085555
-0.021741772 0.044886842 0.037048399
0.02177522 0.044986196 0.037071954
0.022687744 0.045086209 0.037129886
-0.022517188 0.046880491 0.037062891
-0.021748396 0.047165897 0.037030257
0.02176816 0.046875589 0.037025005
0.022619709 0.047053091 0.037108433
-0.022539815 0.049009748 0.037005503
-0.021815808 0.049043238 0.037086729
0.021746788 0.048935313 0.037232466
0.022550611 0.048969343 0.037110504
-0.022729732 0.050751839 0.037050534
-0.021218037 0.050793197 0.03700776
-0.019041557 0.05113114 0.03709802
0.018975545 0.051210221 0.037107877
0.021159682 0.050822515 0.037046123
0.022633232 0.050658088 0.037102625
-0.018744569 0.053279269 0.037115935
-0.016990585 0.053807694 0.036983743
-0.014993248 0.053780191 0.037116636
-0.012916741 0.053798094 0.037083488
-0.010977164 0.053779159 0.037046134
-0.0090432623 0.05380252 0.037032355
-0.0070622605 0.053781692 0.037123654
-0.0050219307 0.053813133 0.037028696
-0.0029740694 0.053776436 0.037107356
-0.00099191139 0.05378769 0.037124868
0.00090705138 0.053788044 0.037060119
0.0029008787 0.053786315 0.037133634
0.0049580717 0.053797349 0.037043795
0.0070350589 0.053803612 0.037084982
0.0090173045 0.053782765 0.037066095
0.011103547 0.053778574 0.037035577
0.013026558 0.053797845 0.037075005
0.015026507 0.053776924 0.037073102
0.016969597 0.053801518 0.037031602
0.018727055 0.053361412 0.037186574
-0.01864741 0.054122809 0.036881123
-0.01697433 0.054108355 0.037032731
-0.014920942 0.054070212 0.037018657
-0.013000379 0.054101896 0.036997553
-0.010909376 0.054092098 0.037084583
-0.0089942934 0.054089058 0.037055418
-0.007038685 0.054102808 0.037110154
-0.0049965614 0.054085497 0.037050162
-0.002911675 0.054077789 0.036951728
-0.00084242283 0.054097593 0.037046686
0.00086294109 0.054087427 0.037024241
0.0030027549 0.054088518 0.036984242
0.0050502568 0.05409193 0.037034985
0.0069093145 0.054096177 0.037160758
0.008910534 0.054087915 0.03699404
0.011008742 0.054095007 0.037055191
0.013087747 0.054103993 0.037063606
0.014910575 0.054062255 0.036975853
0.01696627 0.054108478 0.036994226
0.018724395 0.054113977 0.037248693
-0.0189474 -0.052261431 0.038822465
-0.016938897 -0.052177228 0.039109167
-0.015073816 -0.052215032 0.039112784
-0.013092235 -0.052188903 0.039066274
-0.010959209 -0.052193195 0.039027989
-0.0089874389 -0.052187189 0.039089441
-0.0070297346 -0.052197181 0.039021492
-0.0050287005 -0.052185014 0.039046906
-0.0030415719 -0.052203767 0.039129801
-0.00098629144 -0.052206032 0.039027847
0.00092034868 -0.052209616 0.039006859
0.002951012 -0.052199341 0.039143492
0.0049900482 -0.052194312 0.039071415
0.0069972603 -0.052200899 0.039018929
0.0089592021 -0.052182384 0.039062824
0.011044545 -0.052196346 0.039048761
0.013061041 -0.052195471 0.039101727
0.014987865 -0.052200135 0.039064053
0.016995786 -0.052189227 0.03909063
0.0186763 -0.052146174 0.038723152
-0.018896913 -0.051094301 0.039021004
-0.017245863 -0.051612627 0.039155412
-0.014927168 -0.05191087 0.039160021
-0.013067205 -0.051907293 0.039226718
-0.010997586 -0.051900834 0.038991593
-0.0089501273 -0.051902026 0.039012216
-0.0069545782 -0.051903084 0.03903367
-0.0050341873 -0.051915765 0.038888615
-0.0030678776 -0.051898982 0.0390159
-0.0011429236 -0.051923499 0.039061103
0.001085215 -0.051933225 0.03917335
0.002938936 -0.051883951 0.038916111
0.0048556263 -0.0519276 0.03897997
0.0069750249 -0.051912412 0.039061774
0.008999493 -0.051892791 0.038995702
0.010907065 -0.051900305 0.038995132
0.012982261 -0.05190796 0.039149731
0.014963855 -0.051903304 0.039172579
0.017085604 -0.05179698 0.039219439
0.019122947 -0.051094491 0.038939547
-0.022682508 -0.048747689 0.0389513
-0.021144036 -0.049067467 0.038948435
-0.019136485 -0.049227793 0.039091926
-0.01777306 -0.049618818 0.039527588
0.019431593 -0.049249463 0.038970549
0.021068593 -0.049047481 0.03907425
0.022704642 -0.048722677 0.039037846
-0.022640001 -0.047011871 0.038978871
-0.021711793 -0.0469409 0.03884406
0.021725455 -0.046780795 0.039145619
0.022734081 -0.047053788 0.039169509
-0.022675935 -0.045042709 0.038980763
-0.02172618 -0.044946052 0.038909335
0.021754906 -0.044911783 0.039025776
0.022697972 -0.045117836 0.039138142
-0.022666411 -0.043021623 0.038979087
-0.021638416 -0.042997167 0.038929518
0.021672616 -0.042908862 0.039057165
0.022640949 -0.043114498 0.039130114
-0.02266874 -0.040981874 0.03890983
-0.021710655 -0.041110165 0.038705684
0.021633174 -0.04108312 0.039080743
0.022631507 -0.041064974 0.039173976
-0.022660913 -0.038916387 0.038912587
-0.021695862 -0.039092664 0.039004579
0.02170321 -0.039173219 0.039102025
0.022670586 -0.038983144 0.039010689
-0.022716029 -0.03694519 0.039014287
-0.021744458 -0.036882628 0.039016761
0.021671372 -0.036952894 0.038968574
0.022644397 -0.036891043 0.039008263
-0.022629155 -0.035034325 0.038969666
-0.021783812 -0.034853838 0.039007396
0.021713436 -0.035117574 0.0391086
0.022661228 -0.034861475 0.039030373
-0.022679001 -0.03297976 0.038969614
-0.021659793 -0.0329827 0.039097682
0.021760071 -0.032895003 0.039220046
0.022637364 -0.032811522 0.038950495
-0.022728654 -0.030920628 0.039079227
-0.021767017 -0.030985419 0.039202336
0.021701701 -0.030989459 0.038960699
0.022691393 -0.03086186 0.03902952
-0.022654492 -0.029001229 0.039068632
-0.021720368 -0.029064061 0.039191656
0.021768039 -0.028921109 0.039006673
0.022657283 -0.028921101 0.039054714
-0.022678308 -0.026975969 0.039035875
-0.021666978 -0.02717185 0.039261229
0.021741657 -0.026799727 0.039072968
0.022618167 -0.026986256 0.03898393
-0.022661127 -0.025019612 0.039041132
-0.021772904 -0.02515427 0.039149139
0.021648396 -0.025065482 0.038912717
0.022699691 -0.024978843 0.038976833
-0.022683822 -0.023030199 0.039128534
-0.021681167 -0.023234187 0.039190855
0.021760333 -0.02316303 0.038827188
0.022644134 -0.023027947 0.039005592
-0.022695767 -0.020926848 0.039111208
-0.021758053 -0.021094728 0.03924419
0.021759225 -0.021059932 0.03885138
0.022671433 -0.021109903 0.038973365
-0.022688249 -0.018906653 0.039193869
-0.021725591 -0.019035665 0.039254628
0.02174069 -0.019117836 0.038802568
0.022658305 -0.019023709 0.038994785
-0.022688918 -0.016908355 0.039150063
-0.021774137 -0.017071076 0.039351914
0.021727445 -0.017015098 0.038980428
0.022707347 -0.016928544 0.038861349
-0.02265317 -0.015090873 0.039149188
-0.021705601 -0.014950478 0.039166152
0.021773012 -0.014902979 0.038885687
0.022704771 -0.01502535 0.038968503
-0.022726608 -0.013164099 0.039078221
-0.02176624 -0.013027511 0.039230701
0.021805728 -0.013087779 0.038777649
0.022676758 -0.013075677 0.038985718
-0.022656318 -0.011114922 0.03905734
-0.021751834 -0.01092313 0.039292756
0.02171205 -0.011091335 0.038884375
0.022617284 -0.011074747 0.038988058
-0.022765817 -0.008990922 0.039110377
-0.021696722 -0.0088754194 0.039176341
0.021778336 -0.0088977944 0.038842279
0.022618314 -0.008991803 0.038967114
-0.022691369 -0.0069689765 0.039137136
-0.021671677 -0.0067121154 0.039221708
0.021710237 -0.0068940162 0.038971506
0.022720823 -0.0070004654 0.038907409
-0.022716258 -0.0049351142 0.039032932
-0.021712333 -0.0047128471 0.039029874
0.02174956 -0.004969453 0.0388253
0.022697741 -0.004986898 0.038882617
-0.02268284 -0.0030358993 0.039027136
-0.021719024 -0.0028795626 0.039286423
0.02169759 -0.003043612 0.039024975
0.022679904 -0.0029450362 0.038960066
-0.022683773 -0.0011067847 0.039039552
-0.021725724 -0.0011678877 0.039165135
0.021706801 -0.0010134147 0.038888101
0.022679467 -0.00096847297 0.038937211
-0.022733429 0.00090874499 0.039174419
-0.021687366 0.0009818367 0.039203599
0.021701774 0.0011664166 0.03894588
0.022634914 0.00098764221 0.039181899
-0.022680186 0.0030670601 0.03904523
-0.021748787 0.0030665807 0.039191138
0.021762293 0.0031044767 0.038708609
0.022659108 0.0030592196 0.039206352
-0.022692364 0.0051436829 0.03908987
-0.021675982 0.0051468601 0.03900788
0.021717006 0.004895905 0.038803469
0.022684472 0.0050613103 0.039111745
-0.022622036 0.0071003712 0.039013173
-0.021816332 0.0068796249 0.039115228
0.021681042 0.0068918145 0.038918156
0.02272117 0.0070199408 0.039152447
-0.02271929 0.0090299873 0.039083779
-0.02174541 0.0087857395 0.039016809
0.021734679 0.0089250635 0.03901178
0.022691609 0.0090223225 0.039172441
-0.022604765 0.011098709 0.038946927
-0.021780565 0.011021545 0.03925772
0.021696784 0.011026011 0.038804401
0.022608368 0.011051527 0.039032605
-0.022677839 0.013139318 0.039038017
-0.02175479 0.013126663 0.039103497
0.021713136 0.012981223 0.038898397
0.022620378 0.013079021 0.039136656
-0.022576272 0.014899602 0.039000612
-0.021794997 0.015075766 0.03920307
0.021670025 0.014831604 0.038801663
0.022629574 0.014943616 0.038994394
-0.022658372 0.016901888 0.038983803
-0.021709545 0.016940912 0.039370615
0.021689845 0.017019121 0.038947705
0.022641364 0.016929742 0.039073888
-0.022637889 0.018948432 0.039001327
-0.021769425 0.019027511 0.039417744
0.021745598 0.019004218 0.038889609
0.022593809 0.019002909 0.039038405
-0.022591613 0.021140272 0.03908411
-0.021716701 0.02098961 0.039321396
0.021705221 0.021167813 0.038905133
0.022648567 0.021106644 0.039012481
-0.022552796 0.022998916 0.039088316
-0.021702601 0.023033304 0.039312247
0.021724369 0.022998109 0.038792044
0.02263329 0.0229156 0.039054595
-0.022591444 0.025022792 0.03907641
-0.021683197 0.024962816 0.039414432
0.021723632 0.024947429 0.03890153
0.022593496 0.025056086 0.039031893
-0.02259911 0.027004972 0.039144196
-0.021685464 0.026963765 0.039011557
0.021787107 0.027054086 0.038782962
0.022614198 0.027017383 0.039019778
-0.022631621 0.029077731 0.039228655
-0.021693526 0.028957289 0.03905857
0.021715315 0.02900981 0.038900454
0.022608764 0.028956944 0.039016284
-0.022615334 0.031090081 0.039064728
-0.021720363 0.030917468 0.038987167
0.021750676 0.030953567 0.038966507
0.022671971 0.030848796 0.039061163
-0.02253955 0.032998528 0.039074641
-0.021733034 0.032863658 0.039142191
0.02172602 0.032959338 0.03881285
0.022666482 0.033018973 0.038941521
-0.022646716 0.035067383 0.039161786
-0.021708678 0.034923308 0.039130718
0.02174693 0.035136364 0.038819656
0.02262955 0.035189636 0.038974039
-0.022622684 0.037106123 0.039224319
-0.021713968 0.036898941 0.039099805
0.021716984 0.037086107 0.038835336
0.022529706 0.037074365 0.038918391
-0.022608465 0.038984228 0.039227784
-0.021715097 0.038898967 0.039031956
0.021738216 0.038911015 0.038900141
0.022645853 0.03895773 0.038990483
-0.022687152 0.040988363 0.039160568
-0.021770962 0.040942505 0.039115433
0.021727575 0.040888365 0.039048839
0.022615861 0.040937476 0.039029881
-0.022639856 0.04296048 0.039021283
-0.021716211 0.043034561 0.039031252
0.021747191 0.043026686 0.038884576
0.022553805 0.04295148 0.039079487
-0.022747561 0.044997424 0.039006632
-0.021759614 0.044906445 0.039067175
0.021725187 0.045102231 0.038878746
0.022622334 0.045005765 0.039043911
-0.022697113 0.04708676 0.039033521
-0.021713348 0.046986565 0.039028294
0.021729691 0.047105029 0.039071508
0.022611663 0.046911724 0.0391015
-0.022557963 0.049012948 0.038992025
-0.021720732 0.049071606 0.038800895
0.021798505 0.049105987 0.038956884
0.022620494 0.048953056 0.039029874
-0.022754412 0.050636262 0.039109293
-0.021204168 0.05082304 0.039090082
-0.019047892 0.051045027 0.039012026
-0.017540803 0.051257346 0.039120182
0.01729211 0.051620953 0.039736044
0.019001944 0.051160511 0.038982645
0.021175107 0.050846398 0.039015111
0.022726279 0.050800402 0.039097853
-0.018865973 0.05327265 0.038654204
-0.017080912 0.053544037 0.039209891
-0.014940561 0.053788628 0.039122093
-0.012951198 0.053810179 0.039079536
-0.01100068 0.053797796 0.039119348
-0.0090223597 0.053811103 0.039116535
-0.0070475237 0.053802859 0.039051063
-0.0050035603 0.053826194 0.039089721
-0.0029664726 0.053788893 0.039159719
-0.00098838669 0.053801853 0.039030939
0.0009167167 0.053806383 0.039085932
0.0029000768 0.053798795 0.039099965
0.0049567544 0.053814083 0.039117116
