# .PCD v0.7 - Point Cloud Data file format
VERSION 0.7
FIELDS x y z
SIZE 4 4 4
TYPE F F F
COUNT 1 1 1
WIDTH 1247
HEIGHT 1
VIEWPOINT 0 0 0 1 0 0 0
POINTS 1247
DATA ascii
0.0013859676 0.01919366 -0.0049895868
0.0021264197 0.019193934 -0.0049749287
0.023694141 0.01919442 -0.0050615515
0.024205767 0.019238271 -0.0048990655
0.0013683493 0.021630876 -0.0049711061
0.0021387511 0.021632163 -0.0050566657
0.023636498 0.021651765 -0.0050187083
0.024218712 0.021645796 -0.0049763792
0.0014956263 0.023152066 -0.0050735478
0.002106467 0.022992216 -0.0048953732
0.023605881 0.02297478 -0.0050307792
0.024220979 0.023305982 -0.0049126479
0.0013721068 0.024373895 -0.004992662
0.0021188231 0.024303695 -0.0050502927
0.023665499 0.024383843 -0.0049671731
0.024226282 0.024343425 -0.0050777239
0.0013797815 0.026809733 -0.0050146678
0.0021178497 0.026810469 -0.0050409688
0.023681981 0.026809789 -0.0049621128
0.024211943 0.026798788 -0.0050001265
0.0013737211 0.029359089 -0.0050342227
0.0021193086 0.029325161 -0.0050204135
0.023702653 0.029356916 -0.0050796298
0.024199141 0.029313248 -0.0049731396
0.0013421987 0.031692971 -0.0050064777
0.0021308833 0.031709082 -0.0050173434
0.02372954 0.031707108 -0.0050788838
0.024233816 0.031694282 -0.0050234273
0.0014791348 0.03224425 -0.0050024097
0.00213738 0.032299448 -0.0050540781
0.023617391 0.03224526 -0.0049967952
0.024196403 0.032219537 -0.0049600247
0.0013902907 0.03443126 -0.0050679715
0.002135226 0.034370933 -0.0050076419
0.023687847 0.034457229 -0.0050387308
0.02422539 0.03441051 -0.00502112
0.0013833138 0.036984865 -0.0049964259
0.0021453302 0.03693046 -0.0050098933
0.023695415 0.037008863 -0.0050330488
0.024195669 0.036968596 -0.0049795415
0.001375036 0.039539944 -0.0050537996
0.0021551126 0.039547943 -0.005000134
0.023692401 0.039509617 -0.0050198617
0.024217999 0.039494891 -0.0050368034
0.0013112614 0.041802336 -0.0050407443
0.0021194911 0.041767318 -0.0050292448
0.023680825 0.041802455 -0.0050222403
0.024210874 0.041815449 -0.0050988607
0.0014563408 0.042230882 -0.0050702784
0.0021491065 0.042245582 -0.0048717218
0.023652637 0.04225542 -0.0050382279
0.024167916 0.042202301 -0.0050481311
-0.00010228857 0.0057242876 -0.0023012382
0.001066451 0.0055217207 -0.0025067425
0.0024854804 0.0055000409 -0.0024522555
0.023242887 0.0055434406 -0.0024885228
0.024646832 0.0055524237 -0.002395527
-0.00012829529 0.0067730197 -0.0022623825
0.0010576397 0.0068630842 -0.0027812917
0.0024437488 0.0068386234 -0.0026128197
0.023312127 0.0068376996 -0.0027427508
0.02455147 0.0068367976 -0.0026577383
-0.00011459287 0.0090573113 -0.0023511976
0.0010644547 0.0089841606 -0.0027756339
0.0024549055 0.009039971 -0.0026349365
0.023318011 0.009031496 -0.0027330918
0.024577683 0.0090307333 -0.0026651099
-0.00010945471 0.011192321 -0.0023632357
0.001067761 0.011151429 -0.0027485916
0.0024489772 0.011197206 -0.0026074792
0.023346877 0.01116161 -0.0027561209
0.024557302 0.011161632 -0.0026635544
-9.5617208e-05 0.012941334 -0.0022908696
0.0010202859 0.013123631 -0.0025938509
0.0025007254 0.01307782 -0.0024433855
0.023289286 0.013115088 -0.0025743826
0.024623256 0.01312649 -0.0024903193
-0.00011303899 0.014892274 -0.0023713009
0.0010011732 0.014880126 -0.0026720888
0.0024957336 0.014900782 -0.0024749015
0.023307383 0.014870564 -0.0026905742
0.024570098 0.014788277 -0.0025696766
-0.00011925092 0.016773783 -0.0023247951
0.0010919867 0.016893499 -0.0027768773
0.0024938458 0.016961237 -0.0025749593
0.0050853807 0.017515574 -0.003638484
0.0071075577 0.017515568 -0.0036384754
0.0091297198 0.017515574 -0.003638484
0.011151932 0.01751559 -0.0036385094
0.013174118 0.017515559 -0.0036384587
0.014791893 0.017515574 -0.003638484
0.016814096 0.017515579 -0.0036384927
0.018836262 0.017515559 -0.0036384587
0.020858439 0.01751557 -0.0036384754
0.023360599 0.016909409 -0.0027473124
0.024524383 0.016817868 -0.0026568272
-0.00010427774 0.019030387 -0.0023430865
0.0011124799 0.019026702 -0.0027679969
0.0025196141 0.019020259 -0.0026123135
0.0050853807 0.018891718 -0.0027879809
0.0071075568 0.018891713 -0.0027879723
0.0091297189 0.018891716 -0.0027879809
0.01115193 0.018891733 -0.0027880063
0.013174118 0.018891701 -0.0027879558
0.014791892 0.018891716 -0.0027879809
0.016814094 0.018891724 -0.0027879893
0.018836262 0.018891701 -0.0027879553
0.020858439 0.018891711 -0.0027879726
0.023338834 0.019064002 -0.0027232717
0.024514051 0.019082472 -0.0026801853
-9.6975244e-05 0.021298831 -0.0023977156
0.0010530531 0.021115396 -0.0027327349
0.0024669552 0.021119103 -0.0025687625
0.023323607 0.021166367 -0.0026669626
0.024526989 0.021175852 -0.002607072
-9.7843695e-05 0.023019023 -0.0024000225
0.0010305142 0.022996712 -0.0025844632
0.0025101742 0.023012638 -0.002484058
0.023282254 0.023007544 -0.0025614316
0.024618231 0.023037061 -0.0024683138
-0.00010896406 0.024977544 -0.0023529432
0.0010550289 0.024872763 -0.0026892719
0.0024447395 0.024836937 -0.0025719451
0.023319399 0.024819486 -0.0026695111
0.024572685 0.024835812 -0.0025529957
-0.00012362078 0.026911214 -0.0023676523
0.0010824192 0.026953204 -0.0027397412
0.0024648425 0.026953992 -0.0025445612
0.023375895 0.026933795 -0.0027138339
0.024515705 0.02690791 -0.0026115698
-0.00012533176 0.029035909 -0.0024077634
0.0011224648 0.029101098 -0.0027740421
0.0024530783 0.029084023 -0.0026200351
0.023391966 0.029103203 -0.0027592224
0.024523703 0.029118776 -0.0026195662
-0.00012204738 0.031032963 -0.0024647953
0.0010310194 0.031075951 -0.0026343837
0.0025253713 0.031131536 -0.0024875244
0.023374867 0.031158837 -0.0026610286
0.024551833 0.031170484 -0.0025412561
-9.4359813e-05 0.032893233 -0.0024059794
0.0010170843 0.032882009 -0.0026104241
0.0025398824 0.032972373 -0.0024221865
0.0232997 0.032871623 -0.0025724585
0.024591377 0.032876242 -0.0024792016
-7.0578746e-05 0.034894284 -0.0023604881
0.0010833938 0.03481742 -0.0027618625
0.0024459588 0.034841109 -0.0025859324
0.023370761 0.034814268 -0.0027221958
0.024529478 0.034795884 -0.0025951054
-0.00012569129 0.037106961 -0.0023441527
0.0010647567 0.036990188 -0.002749291
0.0024800778 0.037003458 -0.0025060424
0.023385497 0.0369935 -0.002737696
0.024544874 0.037025139 -0.0026237837
-0.00010614011 0.039332725 -0.0023716844
0.0010937472 0.039202712 -0.0027778675
0.002458971 0.039104279 -0.0025264854
0.023399003 0.039154626 -0.0027295277
0.024553094 0.03918127 -0.0025862507
-0.00013059542 0.04115596 -0.0023266326
0.0010060231 0.041132439 -0.0025981965
0.0025026763 0.041132845 -0.0024535002
0.021994192 0.041348662 -0.0022824712
0.023342716 0.041169997 -0.0025583322
0.02466624 0.041130371 -0.0024580352
-0.00012643264 0.042487513 -0.002370534
0.0011503095 0.042593528 -0.0026824719
0.0024531672 0.042643789 -0.0024328621
0.023377454 0.042622205 -0.0026761338
0.02452914 0.042560942 -0.0025447928
-2.420953e-05 0.0019410463 -0.00033082039
0.0011201177 0.0011883118 -0.00018717955
0.0030654818 0.00080346246 -0.00021055728
0.0050246678 0.0010558672 -0.00023428147
0.0070090932 0.0010824362 -0.00022424331
0.0089803291 0.001040441 -0.00022170741
0.010946576 0.0010534867 -0.00021721104
0.012966913 0.0010410398 -0.00021664544
0.0149736 0.0010277306 -0.00021464424
0.016946156 0.0010216235 -0.00022424562
0.019005354 0.0010301516 -0.00022082521
0.021030756 0.0010728895 -0.0002158134
0.022933273 0.00072257535 -0.00020751446
0.024740085 0.0012490392 -0.00020255313
-9.8759716e-05 0.0029234786 -0.00015030695
0.00069756265 0.0030619374 -0.00022469769
0.0038385242 0.0032880381 -0.00013578731
0.005050323 0.0030260943 -0.00023717698
0.0069739334 0.0029853524 -0.00023276161
0.0089625297 0.0029936251 -0.00023668457
0.010987176 0.0030065731 -0.00022425017
0.012931566 0.0030226863 -0.00023280128
0.014961547 0.0029928628 -0.00022585438
0.016965849 0.0030196786 -0.0002341363
0.018950241 0.0029922028 -0.0002348102
0.02094206 0.0030278796 -0.00021538252
0.02516691 0.0030634257 -0.00021856671
-0.00014460032 0.00540283 -0.00072689709
0.00087154179 0.0051188595 -0.00090492069
0.0028606881 0.005150889 -0.00068191171
0.0049991496 0.0050168196 -0.00022687456
0.0070026182 0.0049625444 -0.00022350826
0.0089446008 0.0049874256 -0.00023076232
0.010956788 0.0050392929 -0.00022793144
0.012945301 0.0050686351 -0.00022979204
0.014979369 0.0050191637 -0.00022107534
0.016973294 0.0050242855 -0.0002326298
0.018976601 0.0049959542 -0.00023694636
0.021027477 0.0049791932 -0.00023020033
0.023010027 0.0051827109 -0.00079254399
0.024847919 0.0052065225 -0.00082850049
-0.00013601716 0.0068232864 -0.00094087014
0.00034864651 0.0070164306 -0.0010167962
0.0029955094 0.0069705187 -0.00093108357
0.004999965 0.0069453442 -0.0002239552
0.0070730313 0.0069925464 -0.00023084752
0.0089904349 0.0069712466 -0.00022641257
0.010961379 0.0069799041 -0.0002221208
0.012930539 0.0069874437 -0.0002337468
0.014949482 0.0069804578 -0.00022963187
0.017005716 0.0069746468 -0.00024093315
0.018961165 0.0069773211 -0.00023505669
0.020963183 0.0069887312 -0.00022671255
0.022634367 0.0070332717 -0.0009242532
0.025022246 0.0070054806 -0.00098471774
-0.00012705769 0.008963326 -0.00093440973
0.00035774414 0.0090138866 -0.0010475278
0.0031009756 0.0089977244 -0.00084779301
0.0050754398 0.0090122959 -0.00020592118
0.0070102219 0.0090620453 -0.00021504845
0.0089703528 0.009011372 -0.00021966848
0.010989941 0.0089884242 -0.00022300267
0.012889375 0.0090470556 -0.00023325247
0.014907515 0.009025705 -0.00021853422
0.016982941 0.0089781331 -0.00023167487
0.018961038 0.0090068839 -0.00022719947
0.020947559 0.008997865 -0.00023245678
0.022556029 0.0089986809 -0.00086087204
0.025052113 0.0090184016 -0.00097013923
-0.00014118655 0.0111646 -0.00083695306
0.0003651022 0.010919458 -0.0010715252
0.0030289397 0.010919489 -0.0008391919
0.0050442661 0.011051552 -0.0001878925
0.0070426017 0.01101903 -0.00022607035
0.0090289274 0.010986193 -0.00022324761
0.0109564 0.011065471 -0.00022520467
0.012917603 0.011036212 -0.00024405877
0.014948418 0.011025191 -0.00023188582
0.017012084 0.010981977 -0.00023723334
0.018922679 0.011029446 -0.00023540211
0.02097863 0.010968119 -0.00025045004
0.022648055 0.010919741 -0.00090347003
0.025004927 0.011002633 -0.0010148778
-0.00012624171 0.013044045 -0.00091080612
0.00038604584 0.012987026 -0.0010390816
0.0030045824 0.012956756 -0.00088079652
0.0050099147 0.01296366 -0.00018249977
0.0070282542 0.012988164 -0.00022198421
0.0090110805 0.012943679 -0.0002163966
0.01100488 0.013018459 -0.00021183617
0.012939882 0.013014672 -0.00023246389
0.014952561 0.013033587 -0.00022402235
0.016996607 0.012998405 -0.00023308885
0.018990086 0.012991831 -0.00022008405
0.021014227 0.012987483 -0.00023965687
0.022620067 0.012993706 -0.00093899551
0.024980165 0.012999739 -0.001033008
-0.00013676264 0.015041456 -0.0008744832
0.00033684477 0.015042494 -0.0010276894
0.0030304813 0.015001805 -0.00086744275
0.0050790627 0.015013295 -0.00018889295
0.0070310254 0.015036605 -0.00022542829
0.0089785038 0.014996783 -0.00021282009
0.01097325 0.015001692 -0.00022817812
0.012915844 0.015022623 -0.00024638275
0.014987481 0.014995028 -0.00022464526
0.017006002 0.01501696 -0.00023417849
0.018961638 0.014999545 -0.00023123542
0.020993683 0.014993135 -0.00024287247
0.022675412 0.015062832 -0.00089030742
0.024988281 0.014991913 -0.00099555368
-0.00012921244 0.016917218 -0.00090759766
0.00036053089 0.017046513 -0.0010287866
0.0029964531 0.016995614 -0.00090640679
0.0051086573 0.017059589 -0.00018256
0.0070790253 0.016962714 -0.00021157354
0.0089771701 0.017041259 -0.00021418647
0.010969807 0.017018622 -0.00021503297
0.012940768 0.017000427 -0.00023265964
0.014992436 0.017006947 -0.00022700164
0.017066265 0.017078688 -0.00023429513
0.0189564 0.016992616 -0.00023340994
0.020921851 0.017027173 -0.00023674563
0.022645993 0.017030166 -0.00090082188
0.025000183 0.017035801 -0.0010056196
0.026013721 0.017742567 -5.539112e-05
-0.00013707507 0.019029878 -0.00089302659
0.00030917404 0.018949606 -0.0010175953
0.0030212021 0.0190403 -0.00093232212
0.0051023904 0.019017352 -0.00019497178
0.0070814737 0.019008325 -0.00022321817
0.0089542493 0.018962221 -0.00022002195
0.010962549 0.018987507 -0.0002172868
0.012934852 0.018985517 -0.00024510288
0.015006057 0.019004902 -0.00023629538
0.017032484 0.019003697 -0.00023884459
0.018964985 0.018974511 -0.00024139899
0.020964332 0.019007193 -0.00023846963
0.022652529 0.019029744 -0.00090095383
0.025021698 0.01898724 -0.0010232128
-0.00014225733 0.021111626 -0.00086215895
0.00036670372 0.020932591 -0.0010040951
0.003025345 0.021006975 -0.00091467454
0.00509232 0.020943483 -0.00027411376
0.0070671756 0.021015596 -0.00031264924
0.0089834854 0.020955896 -0.00027939896
0.010991991 0.021001073 -0.00030880354
0.012959176 0.020999065 -0.00030245029
0.014978605 0.021011086 -0.00027117727
0.017030507 0.021010276 -0.00031772882
0.018950863 0.020966826 -0.00029654766
0.020954655 0.020992266 -0.00032638555
0.022654081 0.02096644 -0.00091854914
0.024999302 0.020975159 -0.0010232083
-0.00014346186 0.023053354 -0.00090653234
0.00037230237 0.02296447 -0.00098383462
0.0029941122 0.023038218 -0.00087636459
0.0051121819 0.022960365 -0.00020818941
0.0070190164 0.022982212 -0.00021060412
0.008977348 0.022992667 -0.0002347941
0.010976994 0.022980075 -0.00022907835
0.012907797 0.023016907 -0.00024460754
0.01496654 0.023021074 -0.00024173361
0.017086755 0.023008924 -0.00024782951
0.018995926 0.022973908 -0.00025094196
0.020962076 0.022978922 -0.00024174553
0.022642454 0.022977941 -0.0008479238
0.024991877 0.022956805 -0.0010011824
-0.00013685061 0.024944678 -0.00087696128
0.00037068874 0.025048092 -0.0010040724
0.0030006033 0.024954811 -0.0008882173
0.0051424829 0.025062915 -0.00019147243
0.0070926975 0.025037104 -0.0002099804
0.0089884726 0.025015051 -0.00022057444
0.010968832 0.025019849 -0.00022104751
0.012903135 0.025079109 -0.00023183126
0.01495588 0.024977116 -0.00023306299
0.017065208 0.024988249 -0.00023836709
0.018936617 0.025031822 -0.00023744637
0.020903951 0.025017135 -0.00022629357
0.022647399 0.024978492 -0.00088728114
0.02501151 0.025002467 -0.00099620677
0.026059927 0.025353123 -0.000131525
-0.00013627559 0.026974788 -0.00082180632
0.00034174634 0.027100196 -0.00099074468
0.002988498 0.027013689 -0.00095040002
0.0050853482 0.027009919 -0.00019105039
0.0070359819 0.027044026 -0.00020189426
0.0089913877 0.027015101 -0.00021482723
0.010997671 0.026987435 -0.00020938068
0.012887407 0.027054284 -0.00021803148
0.014892342 0.026941851 -0.00023976099
0.016964693 0.026995692 -0.00022637099
0.018890331 0.02702599 -0.00024223109
0.020906787 0.027008703 -0.00023310163
0.022643531 0.02703266 -0.00088792428
0.025007736 0.027035275 -0.0010058411
0.026049271 0.026048461 -1.2121717e-05
-0.00015286225 0.029042592 -0.00092733186
0.00034809767 0.029012766 -0.0010190294
0.0029768816 0.029012959 -0.00091738999
0.0050256229 0.028993599 -0.000202159
0.0070433072 0.029020991 -0.00019874058
0.0090432689 0.028986325 -0.00022906381
0.01095673 0.029002419 -0.00021907229
0.012845865 0.02896934 -0.00022125633
0.014906458 0.028957153 -0.0002499425
0.016925512 0.028965395 -0.00022698719
0.018901909 0.029031806 -0.00024157421
0.020854181 0.029029133 -0.00023526647
0.022607228 0.028981445 -0.00084459869
0.025019281 0.029009158 -0.0009939993
-0.00014684029 0.031018771 -0.001008102
0.00034941113 0.030930119 -0.0010088241
0.0029628691 0.030999931 -0.00088908011
0.0050569461 0.031033425 -0.00018932934
0.0070574097 0.030989695 -0.000190782
0.0090053221 0.031016493 -0.00021556392
0.010998359 0.031017039 -0.00020057151
0.012872226 0.030993946 -0.00021923687
0.014863351 0.030994093 -0.00022431546
0.016918197 0.031012082 -0.00023807021
0.018894661 0.030984063 -0.00022667444
0.020905836 0.0310056 -0.00022228355
0.022646492 0.031018401 -0.00088180974
0.024981331 0.030999899 -0.00099537394
-0.00015327243 0.033032916 -0.00095491624
0.00036146786 0.032986011 -0.0010577039
0.0029280956 0.032967452 -0.00088494492
0.0050092768 0.033044472 -0.00019384018
0.0070334612 0.03299015 -0.000205795
0.0090026762 0.033040401 -0.00022645231
0.010994085 0.033064637 -0.00021222314
0.012900051 0.032982502 -0.00021617161
0.014871445 0.032973435 -0.00023805039
0.016939254 0.033066072 -0.0002347518
0.018977638 0.032970507 -0.0002413756
0.020970592 0.033024725 -0.0002319647
0.022683222 0.03301736 -0.00088714599
0.024973292 0.032991964 -0.00099595555
0.026003387 0.032611769 -0.00014093737
-0.00015271449 0.034942165 -0.00094584288
0.00040068469 0.035041407 -0.00099918956
0.0029301932 0.034999326 -0.00091527804
0.0051379651 0.035040963 -0.00018431016
0.0070705521 0.035020072 -0.00018546449
0.0089749368 0.03504454 -0.00022131929
0.01099757 0.034994643 -0.00020639217
0.012873098 0.034933869 -0.00021671636
0.01489502 0.034974083 -0.00022596282
0.016980739 0.035008434 -0.00022182058
0.018939033 0.034997955 -0.00023963852
0.020996824 0.035062406 -0.00023772095
0.022705285 0.03506691 -0.00092587469
0.024961347 0.035007931 -0.001014696
-0.0001472084 0.036939196 -0.00096325018
0.00035104138 0.037071727 -0.0010456815
0.0029561184 0.037025545 -0.00094927161
0.0051514362 0.036941033 -0.00018806983
0.0070692841 0.036991362 -0.00020559969
0.0090133185 0.036988888 -0.00021171103
0.010999803 0.036929674 -0.00020723089
0.012842716 0.036917798 -0.00022641393
0.014898621 0.036961555 -0.00022671233
0.017021632 0.037000682 -0.0002401746
0.019000504 0.03694886 -0.00023876609
0.020973817 0.03701954 -0.0002250269
0.022685681 0.036999911 -0.00089542608
0.024986109 0.037041079 -0.0010029215
-0.00016547476 0.039079342 -0.00095558271
0.00036573168 0.039012063 -0.0010220697
0.0029171794 0.039002702 -0.00094710634
0.0051249969 0.039022043 -0.00016356436
0.0070420401 0.038872279 -0.00018379824
0.0089490032 0.038946655 -0.0002192884
0.011029746 0.038958717 -0.00020301415
0.012872398 0.03892282 -0.00021149965
0.014901363 0.038950015 -0.00021803474
0.016997488 0.038953457 -0.00022115663
0.018961433 0.038933884 -0.00023760798
0.020957254 0.038988881 -0.00023605785
0.022703024 0.038982779 -0.00090446934
0.024964994 0.039049208 -0.0010167965
-0.00014903798 0.04104723 -0.00094770035
0.00040025011 0.041006599 -0.0010639101
0.0028850771 0.041029524 -0.00097422756
0.0050395667 0.04110691 -0.00017194047
0.0070075942 0.040974971 -0.00019744367
0.0090257768 0.041000921 -0.00021104692
0.011033648 0.040980287 -0.0002003572
0.012879693 0.040978156 -0.00021618555
0.01492948 0.04101732 -0.00022078599
0.017009785 0.04098447 -0.00023063476
0.0189554 0.040976781 -0.00022950908
0.021029791 0.041032288 -0.00024125613
0.022748196 0.041052919 -0.0009549543
0.02495794 0.041004796 -0.001021325
-0.00015114406 0.042696979 -0.00092638208
0.00075382221 0.042971231 -0.0010189882
0.0028098151 0.042912669 -0.00085311139
0.0051071956 0.043039002 -0.00016519357
0.0070404815 0.043017857 -0.00020642269
0.0090117287 0.042994671 -0.00021055494
0.011080488 0.042973846 -0.00020122096
0.012873638 0.043016162 -0.00022811945
0.014881062 0.04301941 -0.00022555886
0.017027091 0.042990834 -0.00023116922
0.01899014 0.043013576 -0.00023496468
0.02096187 0.043002091 -0.00022892213
0.022986837 0.042980988 -0.0009754239
0.024825858 0.042838547 -0.00099410897
-0.00018619343 0.045042519 -0.00021577808
0.00070540584 0.044918824 -0.00018557932
0.0031384334 0.044372637 -0.00011876335
0.0049901055 0.044954669 -0.00018114432
0.0069618057 0.044993445 -0.00021118695
0.0090506831 0.044964921 -0.00021616009
0.011066997 0.044975135 -0.00020557456
0.012853294 0.045041166 -0.00021647727
0.014906645 0.044971302 -0.000219113
0.016986933 0.045005411 -0.00023325891
0.018973954 0.044981547 -0.00023212102
0.020968312 0.044933874 -0.00022375157
0.022683514 0.044388857 -0.00025605733
0.025133032 0.044977482 -0.0001548837
0.026030051 0.044955526 -7.3307216e-05
-0.00015005037 0.046587437 -0.00020517483
0.00084632996 0.047157731 -0.00018022337
0.0031748498 0.047545958 -0.00016157473
0.0050111315 0.046996403 -0.00018725588
0.0069971429 0.046988808 -0.00021561068
0.0090305777 0.046996865 -0.00020503167
0.01107598 0.046981368 -0.00019699452
0.012906451 0.04705314 -0.000223061
0.014903026 0.046964902 -0.00021751141
0.017024873 0.047001954 -0.00022353556
0.018979019 0.046985395 -0.00023216588
0.020927038 0.046973657 -0.00021522697
0.022877503 0.047674779 -0.00026349953
0.024956148 0.047054306 -0.00020683777
0.0014573571 0.048150666 -0.00014593209
0.0029602903 0.048323669 -0.00017815355
0.0049256077 0.048363816 -0.00019440825
0.0069297706 0.048329275 -0.00018436574
0.008946782 0.048340756 -0.00018512621
0.011054274 0.048331708 -0.00017005373
0.012954424 0.048357211 -0.00016149443
0.014897647 0.048300296 -0.00020613305
0.016966745 0.048353851 -0.00018803102
0.01888028 0.048349194 -0.00016289871
0.020907095 0.048359826 -0.00021741985
0.022965821 0.048342373 -0.00015989669
0.024205728 0.048287328 -9.7116928e-05
0.0030613253 -1.9868214e-07 0.001220906
0.0048816307 -1.7881393e-07 0.0012209059
0.0070053493 -1.937151e-07 0.0012209059
0.0091290083 -1.9868214e-07 0.001220906
0.011197745 -0.00022979817 0.0014735712
0.012957538 -0.00025242739 0.001469999
0.014997952 -0.00024516566 0.0014716006
0.016632166 -6.5374406e-05 0.0014087389
0.018837353 -1.9868214e-07 0.0012209059
0.020961046 -1.937151e-07 0.001220906
0.022477984 -1.7881393e-07 0.001220906
-0.00012989859 0.0017168821 0.00089220772
0.0010385189 0.0010224325 0.0009654563
0.0030462008 0.00072252436 0.00096652372
0.0049156728 0.00067834998 0.00099241035
0.0070321532 0.00054490747 0.00094233057
0.0089919595 0.00066262635 0.00096403185
0.010957377 0.00050446071 0.00081891683
0.013005302 0.00056855468 0.00070602092
0.015037458 0.00052494439 0.00082725659
0.017040994 0.000606152 0.00099373679
0.019038487 0.00054967852 0.00088230771
0.021114109 0.00075419492 0.0010224429
0.023007125 0.00068145007 0.0010082732
0.024780892 0.0011859043 0.0010387372
-0.00020026714 0.0029563592 0.00089706032
0.00062949344 0.0030117026 0.00094820425
0.0037818898 0.0031382421 0.0010176565
0.0046846336 0.0029843247 0.00093276246
0.0071153259 0.0029765756 0.00051848515
0.0089739747 0.0030389363 0.00088578078
0.010983421 0.0029553524 0.0005315555
0.013102217 0.0030170572 0.00033200817
0.015040112 0.0030140693 0.00040851257
0.017019223 0.0030190086 0.00080454326
0.018975616 0.0029853263 0.00024066231
0.021195283 0.0030006296 0.00086917629
0.022733502 0.0038600077 0.0007391157
0.025147332 0.0029784513 0.0010434823
-0.00021027155 0.0049500293 0.00095465558
0.00085217127 0.0049218647 0.0012133173
0.0030142327 0.0049019451 0.0011529577
0.0049429163 0.0050515644 0.001158056
0.0070095509 0.0050890027 0.0010718025
0.008953901 0.0050884029 0.0010714449
0.011021153 0.0052045048 0.00090835703
0.01302492 0.00515862 0.0007924643
0.015037549 0.005234391 0.00090582645
0.017030846 0.0050782608 0.0011128774
0.019001411 0.0051086615 0.0010580397
0.021051293 0.005036802 0.0012259189
0.023000563 0.0048527224 0.001211665
0.025130497 0.0049366043 0.0011660401
-0.00020929067 0.0069762724 0.00097336638
0.00079234346 0.0070162071 0.0013347013
0.0030701254 0.0070034768 0.0013131787
0.0050089615 0.0070015127 0.0011799488
0.0069936188 0.0070058075 0.0011771952
0.0089934198 0.0069873123 0.0011703492
0.010956565 0.0069815437 0.001102949
0.013018031 0.0068398705 0.00094205001
0.015012779 0.0068676854 0.00099768606
0.017031185 0.0069756638 0.0011703029
0.018976068 0.007000302 0.0012193068
0.020980474 0.0069729909 0.0013325575
0.022918271 0.0070742313 0.0015008366
0.025204901 0.0069728917 0.0012121117
-0.00021202776 0.0089761782 0.00097989186
0.00079108309 0.0090211295 0.0013194332
0.0030832333 0.0090114651 0.0013113534
0.0049643461 0.0089525497 0.0011783112
0.0069945375 0.0090142414 0.0011838527
0.0089870542 0.008985213 0.0011770581
0.010907286 0.0089986734 0.0011278607
0.013045355 0.0090090632 0.00075119798
0.015023069 0.009010464 0.00079892657
0.017111955 0.0090215253 0.0011913386
0.019009499 0.0089869499 0.0012306402
0.021009266 0.008981117 0.0013258592
0.022930553 0.0090220599 0.0015597321
0.025235048 0.0089753587 0.0011886652
-0.00021625239 0.011002442 0.0008599789
0.00075535121 0.011034322 0.0013209847
0.0030811238 0.01101022 0.0013412314
0.0050014392 0.011018699 0.0011598646
0.0070089353 0.011011369 0.0011668411
0.0090021389 0.010933471 0.0011306368
0.010912772 0.011001598 0.0011199287
0.013023062 0.010993559 0.00078144396
0.015080139 0.011063168 0.00082591735
0.01708428 0.010999649 0.0011393237
0.018848533 0.0110566 0.00096299738
0.021231057 0.011039943 0.0012221489
0.022964116 0.011011454 0.0015419119
0.025250055 0.010980732 0.0011774196
-0.00020435601 0.013021844 0.00091035478
0.00078191131 0.013006922 0.0013125866
0.0030452029 0.013013815 0.0012906698
0.0049818964 0.012943425 0.0011539959
0.0069975718 0.012955065 0.0011867203
0.0089722583 0.012957512 0.0011320853
0.011016694 0.012967336 0.0011198785
0.013017859 0.013002431 0.0010983772
0.014992814 0.012988231 0.0011054802
0.01703687 0.012909221 0.0011475723
0.019002 0.01291884 0.0011737309
0.021054395 0.012892831 0.0013128914
0.022972895 0.012995856 0.0015399862
0.025222827 0.012983427 0.001151253
-0.00020993927 0.015044534 0.00095898862
0.00078055437 0.015016403 0.0013101608
0.0031061519 0.015036019 0.0012543255
0.0050352453 0.01505543 0.0011644787
0.007017009 0.015071172 0.0011453995
0.0089900605 0.015059929 0.0011268432
0.010995398 0.015046134 0.0010821065
0.012995795 0.015032717 0.0010558432
0.015019096 0.015027946 0.0010742537
0.017034618 0.015092776 0.0010843903
0.019011542 0.015085477 0.0011313304
0.021021819 0.015030602 0.0012726164
0.022941232 0.015071942 0.0015308
0.02521977 0.015018969 0.0011655363
0.026005121 0.015219389 0.00095605553
-0.00020469089 0.017038092 0.00095610053
0.00084798364 0.017001774 0.0013460659
0.0030893516 0.016996592 0.0012615642
0.0049456721 0.016900223 0.0010781037
0.0070937765 0.01693042 0.0011361983
0.0089958422 0.01697463 0.0011484773
0.010996351 0.017008599 0.0010701239
0.012914913 0.016878286 0.00084790919
0.015082304 0.016782582 0.00089934305
0.017013125 0.016990403 0.0011510752
0.018862223 0.016814983 0.0010040618
0.021098224 0.016825436 0.0011973918
0.022928244 0.017006489 0.001541082
0.025197186 0.017005458 0.0011541756
0.026013022 0.016890272 0.0013307277
-0.00021708499 0.018970402 0.00092936138
0.00079416879 0.018978383 0.0013250203
0.0030468791 0.019005287 0.0012168899
0.0047782194 0.019005692 0.00082133891
0.0071834256 0.019006111 0.00098550587
0.0090054963 0.019009981 0.0011635472
0.010978121 0.019004343 0.0010584008
0.012859781 0.018963268 0.00068456412
0.015129318 0.019023249 0.00045368905
0.017051581 0.019007318 0.0011379309
0.018963793 0.019059299 0.0012331061
0.020983625 0.019088013 0.0012976587
0.022916274 0.01900092 0.0015112745
0.025222167 0.018966537 0.001167353
0.026011836 0.019680377 0.0010055723
-0.00021233638 0.020949529 0.00092950766
0.00079166581 0.021022212 0.0012846566
0.0030827913 0.020999804 0.0012195038
0.0048154462 0.02109482 0.00092861982
0.007154718 0.021033907 0.00095856684
0.0090075135 0.021005275 0.0010997191
0.010976442 0.021002732 0.0010395527
0.012834916 0.020987153 0.00065452053
0.015092767 0.021034645 0.00043898373
0.017058309 0.020998368 0.0011271636
0.019013358 0.020979512 0.0012539688
0.021020189 0.020997655 0.0013124272
0.022937568 0.020971168 0.0015130334
0.02520535 0.020980148 0.0011440765
0.026033288 0.021152616 0.00072394876
-0.00022541556 0.022994399 0.0008953053
0.0007965453 0.023011766 0.0013101565
0.0030816584 0.023010517 0.0012470885
0.005007029 0.022999657 0.0011100703
0.0070557497 0.022966526 0.0010413061
0.0090260729 0.022989649 0.0010925498
0.011021191 0.022976434 0.0010698163
0.013013752 0.023104504 0.00089325482
0.015024704 0.023077507 0.0009170174
0.0170331 0.022913825 0.0010687094
0.018992802 0.022955919 0.0012310275
0.020987792 0.022978079 0.0012592272
0.022919742 0.022989448 0.0015213777
0.025185516 0.023000898 0.001136005
0.02602254 0.023156865 0.00079364114
-0.00022242595 0.024995005 0.00095242786
0.00080064288 0.025017161 0.0012890321
0.0031092444 0.025007827 0.0011964972
0.0047444892 0.024982566 0.00085770607
0.006953862 0.024939671 0.00046142814
0.0089292331 0.024868729 0.00045934599
0.010979335 0.024875045 0.00046804559
0.013022355 0.024962684 0.00041446512
0.015030975 0.024930574 0.00042401877
0.017035739 0.024933327 0.00042549384
0.018928148 0.024959572 0.00043156245
0.021284871 0.025012404 0.0010984491
0.022935895 0.025042323 0.0015370586
0.025194602 0.025021818 0.0011685465
0.026031697 0.02512376 0.00101808
-0.00021881537 0.027012348 0.00084909378
0.00077677076 0.027012337 0.0013045274
0.0030822293 0.026995251 0.0012031861
0.0047087371 0.027005883 0.00079234352
0.006956053 0.027005367 0.00027789737
0.0089156423 0.027066892 0.00028067271
0.010982487 0.026969083 0.00028769398
0.013004363 0.026981371 0.00027345232
0.015010583 0.027003765 0.00025658443
0.017048948 0.027039221 0.00027548615
0.018959861 0.027050287 0.00026357721
0.021282686 0.027005933 0.0010377398
0.022888202 0.027019812 0.0015209173
0.025203174 0.027016522 0.0011448631
0.026016954 0.027065825 0.00099676196
-0.0002135765 0.028977456 0.00089047197
0.0008142076 0.029029747 0.0013576098
0.0030699291 0.029017832 0.0011990959
0.0047111646 0.029014671 0.0008211715
0.006914814 0.029010361 0.00024535981
0.0089061502 0.02905553 0.00024932076
0.010968688 0.028977256 0.00025609485
0.013029827 0.028997388 0.00023991821
0.015029479 0.029017048 0.00022728724
0.016991809 0.029021615 0.00022200774
0.019024204 0.029019644 0.00022133101
0.021297153 0.028983235 0.0010106524
0.022914123 0.028972574 0.001526706
0.025195934 0.028989706 0.0011411936
0.026029879 0.028998191 0.00059047394
-0.00021507211 0.03091225 0.00092791085
0.00075377437 0.030978959 0.0012989636
0.0030808738 0.031009998 0.0012005672
0.0047279592 0.031047264 0.00082668639
0.0069460021 0.030981047 0.0002404539
0.0089316089 0.030996766 0.00024071508
0.011016523 0.031003611 0.00025140794
0.013003548 0.031002479 0.00023001374
0.014991906 0.03103156 0.0002357386
0.017000116 0.031042032 0.0002237786
0.018999847 0.03096148 0.0002190443
0.021261657 0.031027744 0.00098172261
0.02293626 0.03093219 0.0015219436
0.025212524 0.030917471 0.001143356
0.026042895 0.030695835 0.00096924679
-0.00021068758 0.032928385 0.00098211411
0.00076108461 0.032948196 0.001267637
0.0030623404 0.033041123 0.0011886299
0.0048003108 0.033017032 0.0007410518
0.006933182 0.032999564 0.00024906109
0.0089586461 0.033043623 0.00025644086
0.011008142 0.032950256 0.0002492934
0.012990603 0.032978758 0.00024812072
0.015010005 0.033027127 0.00023184493
0.017013248 0.033048395 0.00023477465
0.0190174 0.032972801 0.00022846964
0.02127008 0.033054661 0.0010461489
0.022935677 0.0329643 0.0015062338
0.025202103 0.032969888 0.0011583023
0.026028441 0.032541525 0.00097030372
-0.00021714729 0.035024896 0.00088654348
0.00075514248 0.034998674 0.0012971937
0.0030432735 0.035043914 0.0011836842
0.0047902782 0.035018433 0.0007678555
0.0070171673 0.035037141 0.00024829395
0.0089150947 0.034988686 0.0002412977
0.01097249 0.034970742 0.00024716282
0.012980168 0.034999803 0.00023562249
0.015009586 0.035007942 0.00022472545
0.017013203 0.035028175 0.00023957234
0.018988401 0.035062071 0.00021690995
0.021298703 0.035012256 0.001062927
0.022950165 0.035049383 0.0014658589
0.025202174 0.035039458 0.0011272925
0.026036894 0.03505525 0.00079809548
-0.00019577601 0.037039801 0.00090638536
0.00080319773 0.03704533 0.0013149848
0.0030940161 0.037026417 0.0011440609
0.0048382222 0.036992513 0.0007432453
0.006998668 0.037056196 0.00024400391
0.0089512682 0.037008684 0.00024744935
0.010978838 0.036993958 0.00024441254
0.012963326 0.036999024 0.00024973537
0.01500414 0.036982074 0.00023159692
0.016993634 0.036979966 0.00024101271
0.01897206 0.037042286 0.00022005185
0.021211226 0.03701555 0.00098313822
0.022927077 0.037006885 0.001433958
0.025205042 0.03704758 0.0011176836
0.026038531 0.036998358 0.00097145943
-0.00019500533 0.039028801 0.00092660048
0.00076202495 0.039032038 0.0012673681
0.0030816863 0.039035372 0.0011720345
0.0048514982 0.038986534 0.00071522454
0.0070565431 0.039043412 0.00024393357
0.0090128835 0.039008625 0.00023943312
0.010964339 0.038972091 0.00024508408
0.012951171 0.038976718 0.00024349877
0.014953934 0.039023619 0.00022996023
0.017040176 0.038987212 0.00022942676
0.018967221 0.039021492 0.00022231131
0.021232462 0.039053343 0.00097208662
0.022956209 0.038972631 0.0014418372
0.025218474 0.039017811 0.0011317137
0.026053309 0.0387129 0.0009515307
-0.00019793358 0.041025829 0.00096387003
0.0007719631 0.041029364 0.0012551346
0.0030857378 0.041046716 0.001116531
0.004797467 0.041021347 0.00072338554
0.0070224209 0.041013129 0.00023875812
0.0089929253 0.040976647 0.00024640179
0.010953639 0.041018043 0.00025817732
0.012947122 0.04099077 0.00023561859
0.014986056 0.041005984 0.00023277123
0.01702242 0.041036781 0.00023690582
0.018986659 0.041008029 0.00023020247
0.021190315 0.041041892 0.0009324195
0.022909917 0.041029207 0.0014472577
0.02518172 0.041020889 0.0011418418
0.026049167 0.041152649 0.0004304281
-0.00019198589 0.042951792 0.00092981616
0.00082251115 0.043058209 0.0011503035
0.0030370008 0.043022338 0.0010847428
0.0048159254 0.042979073 0.0007145952
0.0070489179 0.043012954 0.00024172763
0.0089751268 0.04300544 0.00024512984
0.01099673 0.042984296 0.00023824694
0.012951291 0.042963114 0.00024335881
0.014945996 0.04295738 0.00024099799
0.016982809 0.042968053 0.0002421416
0.018978838 0.043052301 0.00022918232
0.021214839 0.042982351 0.00089708954
0.022936815 0.043083511 0.0012297173
0.025116904 0.04304529 0.0010798537
0.026058098 0.043034755 0.00083835592
-0.00018280644 0.045000419 0.00092678558
0.0007298261 0.044922024 0.00094719318
0.0031430088 0.044467214 0.00094501872
0.004761654 0.045012087 0.00071310921
0.0070673879 0.044981211 0.00023583187
0.0090133082 0.04501155 0.00024319804
0.01096457 0.044998638 0.00024292212
0.01296375 0.044985678 0.00023449743
0.014954531 0.045004953 0.0002376925
0.016925931 0.044978369 0.00023867114
0.018987911 0.045002747 0.00024497428
0.021213101 0.044948038 0.00078135263
0.023020556 0.044320013 0.00098378689
0.02509339 0.044991709 0.00099450396
0.026038539 0.045193821 0.0011502509
-0.00017578783 0.046457529 0.00093208725
0.00085704343 0.047184136 0.00092141778
0.0031864378 0.047468726 0.00094222417
0.0047595394 0.046931293 0.000760047
0.0070232963 0.047005706 0.00024519794
0.0090237893 0.047007546 0.00025040354
0.011035063 0.047023714 0.0002455069
0.012987336 0.047030456 0.00023576163
0.014914711 0.047031879 0.00024051983
0.016965976 0.047027458 0.00024011824
0.018980926 0.04697413 0.00024392975
0.021188594 0.046996038 0.00077121326
0.023007696 0.047652345 0.001018332
0.024883896 0.047084879 0.00096886425
0.026076388 0.046149276 0.00069303223
0.00160517 0.048217207 0.00096522376
0.0030216051 0.048331872 0.0009122396
0.0049954173 0.048343755 0.00096695381
0.0069953697 0.048361082 0.00098786748
0.0089803478 0.048361845 0.00095441245
0.011009835 0.048353199 0.00098213891
0.012963491 0.048368409 0.0010082325
0.014982123 0.048353627 0.00095721846
0.016998895 0.048369121 0.00098104158
0.018984089 0.048360739 0.00099411863
0.021030381 0.048344567 0.0010018222
0.02300645 0.048307654 0.0009534292
0.024219852 0.04816122 0.00098672311
0.0095591201 -0.00025455924 0.0032619094
0.011066818 -0.00019541002 0.0034483497
0.012982678 -0.00020109482 0.0032871119
0.015017938 -0.00020195353 0.0032766231
0.016896034 -0.00022755169 0.0033067463
0.0012033553 0.0012104682 0.0020239523
0.0029578446 0.0007442215 0.0020186496
0.0053351386 0.001238452 0.0027309582
0.00692944 0.001142938 0.0028395415
0.0094477907 0.00092848553 0.0030379018
0.010923994 0.00082746218 0.0032890753
0.013032914 0.00091319147 0.0033038501
0.014937197 0.00089956884 0.0032996733
0.016872499 0.00085656106 0.0031576473
0.01906256 0.0011506083 0.0028786079
0.020629786 0.0011806029 0.0027803408
0.023324084 0.00067491765 0.0020001812
-0.00011526972 0.0039217747 0.0020373487
0.00062941748 0.0029458203 0.0020290175
0.0052593369 0.0029763423 0.0029103628
0.0069274544 0.0030040599 0.0032122014
0.0094589498 0.0029972426 0.0031566233
0.011005993 0.0030639442 0.0033973844
0.013025193 0.0030794733 0.0035850152
0.015068762 0.0031082726 0.0033701479
0.016983306 0.0029864379 0.0032081946
0.019031243 0.003032865 0.0032804685
0.020717222 0.0029585271 0.0029746203
0.025020756 0.0029902 0.002010769
0.00088082888 0.0052837585 0.0021524501
0.0026118583 0.0052373898 0.0020280422
0.0052636536 0.0044284817 0.0025667965
0.0068665342 0.0044245357 0.0027060278
0.0095731672 0.0046874871 0.0030535113
0.011034124 0.0049747159 0.0032558183
0.013101883 0.0050334274 0.0031549868
0.01500586 0.0049822433 0.0032327175
0.016679009 0.0047730394 0.0031608143
0.01904643 0.004415127 0.0027349805
0.020576481 0.0043973909 0.0027370474
0.02337173 0.0056691202 0.0022748304
0.024703067 0.005094538 0.0020132188
0.0011873998 0.0065889801 0.002369256
0.002957653 0.007011692 0.0020305365
0.00493231 0.0069953492 0.002024889
0.0067413831 0.0070590815 0.0020185867
0.0085794386 0.007339309 0.0020011396
0.011655924 0.0074965274 0.0022947837
0.013086976 0.0074967374 0.0023665137
0.015058085 0.0075261816 0.0023387379
0.016501099 0.0073695485 0.0023269732
0.019007582 0.0070134886 0.0020091217
0.020960825 0.0071142861 0.0020113369
0.0234168 0.0065131327 0.0025044372
0.024245095 0.0065862364 0.0023784726
-5.3381242e-05 0.0084882258 0.0020515046
0.0011981166 0.0090003926 0.0024048141
0.0028457781 0.0089967148 0.0020399953
0.0051557152 0.0091947438 0.0021609096
0.0073060463 0.0091108633 0.0021002833
0.0090121245 0.0093060834 0.0021221647
0.011475026 0.0090066046 0.0022800588
0.013025525 0.0089800656 0.0023490968
0.015053771 0.0090238033 0.0023541953
0.016539689 0.009004537 0.0023380704
0.019191317 0.0093388231 0.0021096165
0.02080985 0.0094513297 0.0022083269
0.02338139 0.0090397829 0.0024570106
0.024319321 0.0089295199 0.0023850056
-0.00019960009 0.010307524 0.002002059
0.0011550126 0.011431225 0.0023907158
0.0027639729 0.011065834 0.0020476822
0.0051498613 0.010716937 0.0021650109
0.0073479465 0.011086056 0.002106644
0.0088653406 0.011343887 0.0021844134
0.011582273 0.011019751 0.002292145
0.013050384 0.011012397 0.0023549434
0.01504507 0.010999027 0.0023570941
0.016489115 0.011005365 0.0023230605
0.019123832 0.010946077 0.0025475232
0.020884193 0.010922254 0.0026141603
0.023377493 0.011415431 0.0024537707
0.024451667 0.011233654 0.002282392
0.0010632338 0.013463651 0.0022712348
0.0029760867 0.013160394 0.0020728821
0.004977861 0.013238843 0.0021798899
0.0070640049 0.013271324 0.002212713
0.0090395892 0.01304022 0.0022216793
0.011031849 0.013337073 0.0022171584
0.01296449 0.013071151 0.0022554868
0.015011583 0.012955348 0.002214849
0.016956085 0.013411183 0.0022258665
0.019034874 0.013453625 0.0022182988
0.021073641 0.013406836 0.0021901191
0.02336649 0.013534234 0.002383207
0.024597012 0.013221204 0.0022437216
0.0011899774 0.014448386 0.0023764917
0.0030161194 0.014965494 0.0020958642
0.0049250382 0.01476966 0.0022101323
0.0069778734 0.014701661 0.0022368585
0.0090161264 0.014732267 0.0022343649
0.010953407 0.014733333 0.0022311246
0.013058529 0.014739164 0.0022248288
0.015058532 0.014684285 0.0022207312
0.017039483 0.014691429 0.0022318233
0.019040721 0.014738241 0.0022215978
0.020952323 0.014796175 0.0022033025
0.02329552 0.014409979 0.0024291028
0.024491997 0.014709886 0.0021712068
-8.0478603e-05 0.016064031 0.0020736295
0.0011614779 0.016618339 0.0023795359
0.0027508743 0.01706945 0.0020589912
0.0050883386 0.017441103 0.0023460404
0.0067035896 0.017456444 0.0023213341
0.0088522555 0.017200161 0.0021574497
0.011436081 0.017122051 0.002144591
0.013069975 0.017058654 0.0031021
0.01504141 0.017021043 0.0031872415
0.016591806 0.017109694 0.0024504794
0.019110804 0.017236605 0.0025170131
0.0209172 0.017223863 0.0025885203
0.023397837 0.016683163 0.0024584781
0.024445387 0.016668523 0.0023275765
0.0011570172 0.019116962 0.002362527
0.0027834813 0.018868681 0.0020597565
0.0051096384 0.01899657 0.0024195416
0.0066348175 0.01901645 0.0024007217
0.008777773 0.018935695 0.0021807691
0.011383497 0.019250244 0.0021980549
0.013049895 0.018992044 0.0032495065
0.015133398 0.019000864 0.003332962
0.016440049 0.018757878 0.0025488045
0.01917026 0.018248592 0.0025341478
0.020811904 0.018305596 0.0024547947
0.023392102 0.019143755 0.0024608171
0.024394281 0.019137682 0.0023168079
-8.2533159e-05 0.020989772 0.0020392498
0.0012326773 0.021547401 0.0023608645
0.0025921564 0.020946493 0.0020689077
0.0051126396 0.020899013 0.0024173094
0.0066738348 0.020943141 0.0023878431
0.0087598236 0.021359408 0.0021269636
0.011450808 0.021189515 0.0021782834
0.013063231 0.02098956 0.0032573361
0.015130732 0.020994749 0.0033313129
0.016422354 0.020749381 0.002566423
0.018933659 0.020932108 0.0020525474
0.021225695 0.021034915 0.0020579649
0.023409383 0.02155997 0.0024176638
0.024389572 0.021354858 0.0022765798
0.0012543381 0.023012079 0.0023542889
0.0025889755 0.022970727 0.0020639217
0.0049864692 0.023583503 0.0023689563
0.0069795004 0.023620868 0.0024099115
0.0089096632 0.023248622 0.0023018226
0.011105959 0.023464685 0.0024285244
0.01315988 0.022405343 0.0031367864
0.015061583 0.022509435 0.0031032176
0.016882645 0.023416406 0.0024048956
0.018981002 0.023582853 0.0024484368
0.020715561 0.023532564 0.0024350269
0.023308355 0.023030199 0.0023539381
0.02446891 0.02307678 0.0022511245
-0.00010713396 0.024830073 0.0021094088
0.001220783 0.024448212 0.002406274
0.0030089873 0.024952393 0.0020816815
0.0051735486 0.024957098 0.0027085836
0.0070118117 0.025008135 0.0029669057
0.0089887204 0.024893969 0.0030413733
0.011022234 0.024923762 0.0030632992
0.012959686 0.024926161 0.0030690755
0.014977206 0.024922684 0.0030672562
0.017005622 0.024889676 0.0030739242
0.0190713 0.024940528 0.0030006948
0.020867774 0.024957554 0.0027294338
0.023418477 0.024441471 0.0024719818
0.024520272 0.024502676 0.0022900149
0.001196287 0.026840026 0.0024333349
0.0028517882 0.027282098 0.0023014417
0.0051253256 0.027043991 0.0026932659
0.0067604729 0.026989741 0.0030720199
0.0091297198 0.027492609 0.0025276621
0.011151931 0.027492626 0.0025276367
0.013174118 0.027492594 0.0025276875
0.014791893 0.027492609 0.0025276621
0.016814094 0.027492614 0.0025276535
0.019309323 0.027012963 0.0031466491
0.020845914 0.027014719 0.0027865453
0.023407426 0.026824839 0.0024329273
0.024630869 0.026988691 0.0023660052
-0.0001702778 0.028877528 0.0029742643
0.0011696002 0.029202228 0.0024753995
0.0029044626 0.028981302 0.0027419988
0.0050853794 0.029014479 0.002643879
0.0067674848 0.028980555 0.0030988781
0.0091297198 0.028868753 0.003378165
0.011151931 0.02886877 0.0033781398
0.013174118 0.028868735 0.0033781903
0.014791893 0.02886875 0.003378165
0.016814094 0.028868757 0.0033781566
0.019239051 0.029017881 0.0031975058
0.020879032 0.028980903 0.0027884827
0.02341447 0.029243421 0.0024767215
0.024531731 0.029092092 0.0025528735
0.0011592098 0.031580266 0.0023506205
0.0028257493 0.031015357 0.0020827653
0.0051121456 0.031032396 0.00262825
0.0067687202 0.030989883 0.0030895416
0.019265354 0.031021282 0.0031758926
0.020854509 0.031016875 0.0027747867
0.023354568 0.031554747 0.00242537
0.024546945 0.031421538 0.0023067559
0.0010548425 0.032458652 0.0023281241
0.0027943852 0.033040497 0.0021034053
0.0050926623 0.033027913 0.0026303967
0.0067563993 0.032960791 0.0030782935
0.019252712 0.033014018 0.0032054423
0.020859314 0.033035085 0.00277626
0.023282146 0.032439638 0.0023167629
0.024747185 0.033116225 0.0021015718
-0.00013283426 0.034767147 0.0020924744
0.0011535465 0.03443877 0.0024164417
0.0027266326 0.034842517 0.0021150548
0.0050592497 0.035000376 0.0026253359
0.0067532216 0.035016295 0.0030778297
0.01925276 0.034992713 0.0032016374
0.020875366 0.035027679 0.0027584042
0.023422921 0.034469292 0.0024734389
0.024483316 0.034700207 0.0023034504
-8.1601436e-05 0.036774207 0.0022077416
0.0012110316 0.036975335 0.0024105848
0.0028510012 0.037051976 0.0021394473
0.0051013348 0.036998473 0.002633635
0.0067483461 0.036983397 0.0030811126
0.019239021 0.037014838 0.0031964041
0.020863578 0.037006773 0.0027601649
0.023437597 0.036924869 0.0024845595
0.02446701 0.036914755 0.0022603737
0.001127044 0.039470583 0.0024140652
0.0028979389 0.039165117 0.0020996972
0.005097874 0.038986601 0.0026284466
0.0067689274 0.038963195 0.0030997912
0.019236825 0.039001081 0.0031887465
0.020844262 0.039005537 0.0027514724
0.023489438 0.039438039 0.0024879964
0.024538126 0.039158873 0.0022238449
0.0011730763 0.041664697 0.0024151206
0.0025773197 0.041271545 0.0022733619
0.0050872942 0.040998664 0.0026553057
0.0070048301 0.040949412 0.0029391691
0.0090124998 0.041008431 0.0030059214
0.011018233 0.040983014 0.0030152013
0.012983527 0.040991999 0.0030048282
0.01497741 0.040998604 0.0030220298
0.01700847 0.04101257 0.003028678
0.018996494 0.040974341 0.002995864
0.020806365 0.040987831 0.002741541
0.023381935 0.04168357 0.0024545272
0.024576975 0.041275118 0.0021805831
-0.00028248446 0.043635644 0.0020037317
0.0011561303 0.042395592 0.0023680788
0.0028950286 0.04341045 0.0020571831
0.0051085074 0.042993527 0.0026790272
0.0069609554 0.04303186 0.0027582978
0.0089938156 0.043011531 0.0027713021
0.010975017 0.04303636 0.0028078959
0.012951399 0.042988848 0.0027960343
0.014949952 0.043016959 0.0028025634
0.016975723 0.043024935 0.0028044842
0.019051455 0.042982481 0.0028396994
0.020838359 0.0430106 0.0027100006
0.023409618 0.042424049 0.0023933265
0.024627391 0.042860612 0.0021726214
-0.00011672304 0.04487114 0.0020644742
0.00070246035 0.04464009 0.0020949899
0.0026728637 0.044042479 0.0020035794
0.0051417514 0.044996105 0.0026766376
0.0069638272 0.04498978 0.0027879127
0.0089891581 0.044986915 0.002800642
0.011009282 0.044996977 0.002847783
0.012972482 0.044974018 0.0028517183
0.014986976 0.044985566 0.0028637019
0.017058726 0.045027953 0.0028275012
0.019047858 0.044972092 0.0028592064
0.020842567 0.045023471 0.002718814
0.023210306 0.044089317 0.0020670572
0.024953101 0.044729844 0.0020939303
0.00069973693 0.047213841 0.0021076507
0.0033469347 0.047758766 0.0021963019
0.0051497566 0.046988707 0.0026535271
0.0070157829 0.047026955 0.0028007128
0.0090203853 0.0470117 0.0027845544
0.01098723 0.047009017 0.0028682323
0.012971334 0.04700496 0.0028602069
0.014984804 0.046999082 0.002861412
0.017013784 0.047075011 0.0028684011
0.019051835 0.047028657 0.0028619051
0.020896135 0.046963885 0.0027060963
0.023303211 0.047701627 0.0021026388
0.024758834 0.046741128 0.0020704879
0.0012947092 0.048143156 0.0020946311
0.002894162 0.04842503 0.002039931
0.0052453303 0.048315465 0.0026201548
0.0069522676 0.048344288 0.0026182956
0.0090441462 0.048329554 0.0026431414
0.010990148 0.048314232 0.0026523159
0.013012053 0.048303254 0.0026647865
0.015046648 0.048325125 0.0026756488
0.017044134 0.048342675 0.0026283322
0.019063244 0.048330072 0.0026399323
0.020764519 0.048285406 0.0026363917
0.022728991 0.048163272 0.0020921584
0.0098042376 -0.00010338493 0.004199713
0.011084225 -0.00023680026 0.0043752845
0.012980671 -0.00023942284 0.0043658735
0.01511897 -0.00025235451 0.0043189642
0.016383173 -0.00021030144 0.0043975683
0.0097495653 0.00091121387 0.0041816831
0.010990343 0.00087030232 0.004277681
0.012986818 0.00094652176 0.0042533991
0.015000337 0.00086461689 0.0042883698
0.016581399 0.00096342561 0.0042411354
0.0097853569 0.0029202041 0.0041873357
0.011040164 0.0030610049 0.00427149
0.012956067 0.0030024676 0.0042556962
0.01497179 0.0030449603 0.0042708945
0.016601427 0.0029895352 0.0042311563
0.0098077049 0.0046705958 0.0041657356
0.011019341 0.0046728319 0.0042547076
0.012948737 0.0047095553 0.0042463699
0.015018738 0.0046311165 0.00425521
0.016536655 0.0045866393 0.0042128507
0.012993188 0.01739037 0.0040128189
0.014496958 0.017499551 0.0040077139
0.013400257 0.019247368 0.0040223235
0.014839458 0.019143349 0.0040164441
0.013830177 0.021164505 0.004031999
0.015342349 0.020907132 0.0040191323
0.0073170527 0.025664469 0.0048629586
0.00896258 0.025661852 0.0049753212
0.0109733 0.025664479 0.0050122058
0.013001769 0.025658129 0.0049987794
0.015038318 0.025656182 0.0050030174
0.017008729 0.025640041 0.0049655014
0.018603252 0.025699284 0.004934065
0.0072015836 0.026983783 0.0050529656
