# .PCD v0.7 - Point Cloud Data file format
VERSION 0.7
FIELDS x y z
SIZE 4 4 4
TYPE F F F
COUNT 1 1 1
WIDTH 1295
HEIGHT 1
VIEWPOINT 0 0 0 1 0 0 0
POINTS 1295
DATA ascii
0.20527774 -0.11479621 0.0024310232
0.21569553 -0.11514585 0.0023436469
0.22486266 -0.11526899 0.002167668
0.23430406 -0.11509995 0.0023790968
0.24501505 -0.11526483 0.0024066824
0.25200066 -0.11459406 0.0014290647
-0.25192884 -0.10539418 0.0022409507
-0.24422781 -0.10555556 0.0024157506
-0.2346849 -0.10501371 0.0023749531
-0.22549026 -0.10501586 0.0027544408
-0.21540572 -0.10458773 0.0028156587
-0.20536894 -0.10493498 0.0024521374
-0.19509409 -0.10505543 0.0024258073
-0.18519337 -0.10584292 0.0028745539
-0.17541631 -0.10607692 0.0024304783
-0.16499434 -0.1052419 0.0024283936
-0.15504152 -0.10466246 0.0026569024
-0.1448396 -0.10504129 0.0023655382
-0.13481539 -0.10560244 0.0028091292
-0.1246618 -0.10499796 0.002326234
-0.11455192 -0.10509716 0.0025534565
-0.1053246 -0.10454531 0.0025284181
-0.094982579 -0.10524458 0.0024518364
-0.085344292 -0.10504372 0.0026474099
-0.075070702 -0.10540984 0.0024514357
-0.064967014 -0.1055458 0.0026798658
-0.054621451 -0.10531081 0.0023638203
-0.044586327 -0.10496587 0.0024151001
-0.034676537 -0.10488448 0.0025084333
-0.02529105 -0.10540043 0.0027072267
-0.015615282 -0.10550457 0.0024897882
-0.0054254895 -0.10530464 0.0023897041
0.0058767302 -0.10617217 0.0024609128
0.015267818 -0.10519581 0.0025699856
0.025077226 -0.10522687 0.0026846759
0.035141204 -0.10532144 0.0025547703
0.045245714 -0.10552874 0.0022521617
0.055751361 -0.1052256 0.0026193827
0.06492319 -0.10511842 0.0025077581
0.074836239 -0.10543654 0.0024276669
0.084787972 -0.1050782 0.0024481285
0.094824314 -0.10446253 0.0024278117
0.10515673 -0.10531609 0.0023182451
0.11504476 -0.10514842 0.0025423958
0.12516311 -0.10517944 0.0022730434
0.1350356 -0.10488643 0.0022959257
0.14497314 -0.10501474 0.0023189508
0.15515465 -0.10539361 0.0024626753
0.16539177 -0.10553911 0.0023376283
0.17517272 -0.10526251 0.0023403864
0.18488635 -0.10563322 0.0024126384
0.19496696 -0.10527136 0.002349236
0.20500134 -0.10521285 0.0021677939
0.2150691 -0.10478564 0.0024259419
0.2248525 -0.10506813 0.0023872484
0.23449789 -0.10548393 0.0022138206
0.2446574 -0.10524181 0.0024419511
0.25200725 -0.10423315 0.001837695
-0.25177187 -0.095148467 0.0024955857
-0.24409932 -0.09445256 0.0023580105
-0.23479177 -0.094921455 0.002596338
-0.22479481 -0.093979858 0.002635485
-0.21452956 -0.094582319 0.0029087698
-0.20505595 -0.094394177 0.00231702
-0.19498433 -0.094780691 0.0024976681
-0.18480667 -0.095459454 0.0026332606
-0.17480972 -0.095124349 0.0025380652
-0.16545393 -0.095107779 0.002445417
-0.15495098 -0.095176287 0.0027479348
-0.14511269 -0.094764858 0.0025826383
-0.13511768 -0.095061503 0.0025744138
-0.1249041 -0.09551163 0.0024097611
-0.11450587 -0.095011152 0.0025397874
-0.10532779 -0.094823435 0.0027334557
-0.094951287 -0.094610505 0.0023053251
-0.0852345 -0.094438493 0.0026311211
-0.074927427 -0.095328756 0.0023779077
-0.064683862 -0.095474191 0.0025057388
-0.054839294 -0.095090963 0.0024989548
-0.044684585 -0.094793484 0.0023493397
-0.034969557 -0.094770521 0.0026607341
-0.025386162 -0.094913572 0.0024877724
-0.015543122 -0.094671436 0.0024730091
-0.005732974 -0.094951741 0.002299228
0.0058805258 -0.095162891 0.0025586577
0.015550945 -0.094819061 0.0024955815
0.024830889 -0.094985694 0.002612073
0.035251282 -0.09488856 0.0024489209
0.044766393 -0.095035866 0.0022354147
0.055246711 -0.095321849 0.0024032588
0.065196596 -0.094629832 0.0023717729
0.074816726 -0.095269091 0.0027645188
0.085326031 -0.094784349 0.0023330399
0.095013976 -0.094334118 0.0025372477
0.10534088 -0.094559789 0.0024333398
0.1151261 -0.094876282 0.0025008305
0.1248169 -0.095179424 0.0023865458
0.13486661 -0.094842814 0.0024174217
0.14536184 -0.094850615 0.0024309251
0.15546434 -0.094836384 0.002475722
0.16519599 -0.094836153 0.0023171159
0.17519774 -0.095314801 0.002325759
0.18509151 -0.095140748 0.0024587533
0.19507036 -0.095002905 0.0024992777
0.20517172 -0.094881371 0.0023014899
0.2146778 -0.094746009 0.0024587971
0.22503337 -0.094778128 0.0024970174
0.23457631 -0.095355429 0.0022946361
0.24455076 -0.095048606 0.0022757631
0.25165552 -0.095540419 0.002587022
-0.25179258 -0.085015073 0.0021038691
-0.24437906 -0.084870785 0.0024809721
-0.2347225 -0.084215395 0.0027235916
-0.22439577 -0.084042825 0.0025354137
-0.21434927 -0.08421278 0.0025805575
-0.2045041 -0.084696323 0.0025471174
-0.19543391 -0.084815212 0.0024506119
-0.18523689 -0.085409403 0.0027041768
-0.17515835 -0.085093819 0.0021811691
-0.1649195 -0.084825099 0.0026276892
-0.15493645 -0.0848592 0.0025764094
-0.14524426 -0.084119476 0.002544967
-0.13490455 -0.084941894 0.0025402347
-0.12525168 -0.0856646 0.0023302096
-0.11466955 -0.085068814 0.0025704713
-0.10483792 -0.084551521 0.0025178322
-0.09439034 -0.084001951 0.0024234594
-0.08527033 -0.084356576 0.0026072331
-0.074943103 -0.085112624 0.0023303009
-0.065093368 -0.085168973 0.0026433046
-0.054624967 -0.084880918 0.0023234515
-0.044653047 -0.084919848 0.0025426059
-0.034792569 -0.084401481 0.002635608
-0.025546823 -0.084629185 0.0027388053
-0.015695475 -0.084551044 0.0025115644
-0.0055615371 -0.084507659 0.0022710629
0.0058334591 -0.084505983 0.0023771783
0.015318182 -0.084203951 0.0026185771
0.025167169 -0.085144103 0.0027820084
0.035120621 -0.084059931 0.0024216047
0.0448948 -0.084985539 0.0024136645
0.055465467 -0.084964387 0.002413206
0.065019205 -0.084654897 0.0023769096
0.075077988 -0.084951036 0.0024963957
0.085310042 -0.085289188 0.0024308173
0.094910353 -0.084643736 0.002467969
0.10497697 -0.084335864 0.0024811388
0.11520206 -0.085078128 0.0025006838
0.12499674 -0.085527919 0.0024929515
0.13496733 -0.084954336 0.0024671087
0.14493205 -0.084847234 0.0024619638
0.15533108 -0.08426144 0.0025215361
0.16471225 -0.084522218 0.0023061989
0.17516248 -0.085169733 0.0024846722
0.18500565 -0.084897012 0.0023394816
0.19479781 -0.084738322 0.0023012972
0.20494741 -0.085093819 0.0023882135
0.2145372 -0.085096531 0.0022380215
0.2249406 -0.084413536 0.0024665629
0.2349245 -0.084891029 0.0024154307
0.24485622 -0.085188501 0.0024055804
0.25151458 -0.085122034 0.0019348064
-0.25215515 -0.075859129 0.0014449687
-0.24445312 -0.075013839 0.0025734594
-0.234681 -0.074807659 0.0027049349
-0.22422786 -0.074291185 0.0026992839
-0.21428585 -0.074590378 0.0025357015
-0.20448647 -0.074951507 0.0024904895
-0.19491357 -0.075138055 0.0025319988
-0.18504918 -0.075213782 0.0026185098
-0.17547189 -0.074949026 0.0024460417
-0.1650054 -0.074938498 0.0026339574
-0.15478128 -0.074569114 0.0025386298
-0.14486867 -0.074449711 0.0025379793
-0.13546669 -0.074557327 0.0026073712
-0.12522528 -0.075420856 0.0025566251
-0.11498824 -0.075329393 0.0026003874
-0.10519257 -0.074562199 0.0025622237
-0.095151067 -0.074319005 0.0026155645
-0.085137211 -0.074255548 0.002615538
-0.07502044 -0.075130962 0.0026830346
-0.064873174 -0.075190358 0.0023738777
-0.055039652 -0.075316951 0.0026404758
-0.044688102 -0.075210787 0.0024333298
-0.035058264 -0.074925974 0.0025944079
-0.025417635 -0.074954309 0.0027505623
-0.015488924 -0.075263843 0.0026215324
-0.0056973794 -0.075256385 0.0024628176
0.0056828544 -0.075043142 0.0023915519
0.015060526 -0.075084217 0.0025701069
0.025200408 -0.074895047 0.0026894407
0.035229284 -0.07445544 0.002573041
0.044671949 -0.075638302 0.0024997948
0.055505577 -0.074902877 0.0025601243
0.065378383 -0.075077362 0.002384871
0.075155661 -0.074511878 0.0026807508
0.084979832 -0.075022243 0.0023680381
0.094508111 -0.074951641 0.0023777613
0.10528403 -0.075203344 0.0024952302
0.11519614 -0.075019114 0.0025084759
0.12544788 -0.075485639 0.0025731181
0.13506776 -0.075059541 0.0023238973
0.14550267 -0.074994616 0.0024871533
0.15495813 -0.074505024 0.002513153
0.16470198 -0.074515894 0.0024492017
0.17489642 -0.074944682 0.0023661971
0.18478996 -0.074759826 0.0022954685
0.19501066 -0.075059861 0.0023886163
0.20488849 -0.075122334 0.002122002
0.21451835 -0.07524842 0.0024596145
0.22484203 -0.074696772 0.0023444279
0.23463292 -0.074913442 0.0023971379
0.24430461 -0.075301558 0.0023591141
0.25234848 -0.07450933 0.0015072384
-0.25158906 -0.067311496 0.001800222
-0.24429859 -0.065490052 0.0023981463
-0.23509398 -0.06497094 0.0028246879
-0.2247992 -0.064237379 0.0026515129
-0.21477109 -0.06538865 0.0025901278
-0.20459504 -0.065120183 0.0023524135
-0.19486076 -0.064963751 0.0023963666
-0.18471329 -0.065073937 0.0026489811
-0.17468862 -0.065275721 0.0023672478
-0.16503721 -0.064785123 0.0024860769
-0.15471034 -0.064770564 0.0027837055
-0.14503592 -0.064931728 0.0026309204
-0.1349268 -0.064957961 0.0027842105
-0.1252116 -0.065260291 0.0023601218
-0.11485363 -0.065424904 0.0026908533
-0.10553989 -0.06468986 0.0025155267
-0.095033012 -0.064457275 0.00274383
-0.085350253 -0.064859323 0.0025677495
-0.07456661 -0.065161109 0.0025610502
-0.065098852 -0.065520488 0.0026218067
-0.055045974 -0.064873412 0.0025489603
-0.04492208 -0.065604307 0.0025194951
-0.034874253 -0.065028228 0.0026080052
-0.025375461 -0.065073803 0.0027406251
-0.015385072 -0.065259427 0.0026151061
-0.005848249 -0.065670833 0.002376158
0.0056197848 -0.064903677 0.0025496252
0.015186552 -0.065674804 0.0025022603
0.024524663 -0.065047003 0.002579035
0.034872476 -0.065416351 0.0025566237
0.045049839 -0.065721072 0.0024230322
0.055560257 -0.065317646 0.0025358382
0.065188959 -0.065000467 0.0025456441
0.075058647 -0.064900585 0.0025268351
0.084872797 -0.064490117 0.0023528747
0.094870172 -0.06492158 0.002394187
0.10563305 -0.065335266 0.0022404115
0.11565167 -0.065099448 0.0027437785
0.12502748 -0.065203734 0.0021521242
0.13515948 -0.065404698 0.0023431368
0.14496174 -0.065185726 0.0021915035
0.15458649 -0.064544424 0.0025381893
0.16492462 -0.064864583 0.0024867561
0.17499556 -0.064671412 0.002452729
0.18503062 -0.064805731 0.0023073819
0.19493774 -0.065270901 0.0025529303
0.20524509 -0.064858042 0.002485089
0.21471541 -0.065036528 0.0023804097
0.22499271 -0.064968899 0.0025184364
0.23483105 -0.065047085 0.0023078597
0.24458638 -0.065026484 0.0023385573
0.25199649 -0.064806126 0.001580961
-0.25216803 -0.055076454 0.0023741929
-0.24446803 -0.055398129 0.0024693685
-0.23472621 -0.055213667 0.0025118273
-0.22486132 -0.054343011 0.0027210272
-0.21485092 -0.05553624 0.002658997
-0.20496199 -0.055371042 0.002703317
-0.19473551 -0.054469008 0.0024261407
-0.1845251 -0.055481024 0.0025947613
-0.17475457 -0.054926272 0.0025310833
-0.16494495 -0.055085555 0.0024279079
-0.15458784 -0.054516327 0.002659709
-0.14513692 -0.055018164 0.0027685477
-0.13488843 -0.054941773 0.0025874921
-0.12508404 -0.055122141 0.0025196976
-0.11483123 -0.055124581 0.0026129175
-0.10568155 -0.054580864 0.002664472
-0.095167078 -0.055042841 0.0023143897
-0.084856458 -0.055099688 0.0027062711
-0.074709319 -0.054799575 0.0024571433
-0.064954013 -0.055014744 0.0026861918
-0.055277482 -0.05501952 0.0023899507
-0.044684451 -0.054972332 0.0026602109
-0.034928277 -0.054876808 0.0024374989
-0.025208531 -0.054737195 0.0027685673
-0.015301873 -0.055212934 0.0024989687
-0.0052919076 -0.055286761 0.002416664
0.0060360441 -0.055021707 0.0022510039
0.015289378 -0.055239279 0.0024185162
0.02500456 -0.055361014 0.0027172801
0.034672901 -0.054980792 0.0024127502
0.044873375 -0.055564731 0.0025535452
0.055460382 -0.054972496 0.0023631484
0.065386295 -0.055574071 0.0025635548
0.074864469 -0.054945048 0.0026921581
0.085004397 -0.054964159 0.0025108289
0.094718695 -0.055205196 0.0024062397
0.1054676 -0.054816015 0.0025328924
0.11509919 -0.054747459 0.0026010314
0.12475695 -0.055525098 0.0025412464
0.13504663 -0.054983661 0.0024373804
0.14511247 -0.055296157 0.0022745314
0.15499167 -0.054744087 0.00255567
0.16491166 -0.054974593 0.0023932024
0.17514759 -0.05463773 0.0024193565
0.18534873 -0.055044103 0.0024502156
0.19486636 -0.055045541 0.0024546057
0.20508786 -0.054942597 0.00234371
0.21506177 -0.054815594 0.0023919186
0.22487172 -0.055204801 0.0023273907
0.23484008 -0.055367965 0.0023365929
0.24439962 -0.055076484 0.0024602362
0.25182498 -0.054242257 0.001699814
-0.25268117 -0.045113757 0.0018360665
-0.24434444 -0.045321323 0.0024999348
-0.23490347 -0.045690555 0.0024758605
-0.22485548 -0.044902418 0.0028497051
-0.21533135 -0.045301147 0.0024822142
-0.20516372 -0.04496368 0.0026533981
-0.19492289 -0.044827286 0.0022621236
-0.18516128 -0.045703962 0.0028000218
-0.17494117 -0.045176037 0.0022668005
-0.16500822 -0.045168016 0.0024747318
-0.15424301 -0.044329107 0.0023190372
-0.14491974 -0.04520398 0.0026974154
-0.13502148 -0.044655796 0.0024037568
-0.12506191 -0.045077618 0.00223833
-0.1151359 -0.045142215 0.0024327871
-0.10590968 -0.045009114 0.0023900741
-0.09500476 -0.045255981 0.0025016849
-0.085038304 -0.044837266 0.0026829543
-0.074861161 -0.045103118 0.0025639252
-0.064812355 -0.045438405 0.0024126265
-0.055008251 -0.044778209 0.0025704948
-0.044736337 -0.044462044 0.0023417
-0.034644373 -0.044313222 0.0025185198
-0.025338987 -0.045027059 0.0026291322
-0.015309568 -0.044624478 0.0024460941
-0.0057194796 -0.044738173 0.0022200698
0.0057439576 -0.044967916 0.0025279352
0.015037157 -0.044844501 0.0024762761
0.024900872 -0.044787999 0.0026146777
0.035378851 -0.045078948 0.0025240544
0.044811755 -0.044770755 0.0023593537
0.05581104 -0.045316041 0.0023262484
0.06527546 -0.045795258 0.0024107301
0.075123042 -0.045532737 0.0025521745
0.084921643 -0.045032326 0.002394987
0.094665773 -0.045165956 0.0023355549
0.10525811 -0.044851691 0.0023806493
0.11545299 -0.045314983 0.0026023216
0.1248195 -0.045167807 0.0025001552
0.13513987 -0.044988215 0.0023799413
0.14520325 -0.045075219 0.0023767096
0.15481715 -0.045271546 0.0023450386
0.16497004 -0.04533137 0.0024737539
0.17519204 -0.044700287 0.0023779843
0.1851795 -0.045290895 0.0023000953
0.19469096 -0.044876985 0.0023614359
0.20490558 -0.044899397 0.0023395317
0.21490481 -0.044543955 0.0023807269
0.2247487 -0.045167878 0.0023237253
0.23486684 -0.045019504 0.0022182825
0.24457996 -0.044989876 0.0024292173
0.25158596 -0.044760756 0.0017813104
-0.25261217 -0.035470486 0.0019453907
-0.24371363 -0.035631504 0.0028438871
-0.23485808 -0.03485598 0.0023841381
-0.22535451 -0.03453467 0.0028117546
-0.21529879 -0.035585739 0.0026733533
-0.20519698 -0.03481378 0.0026311695
-0.19494916 -0.035151664 0.0027069969
-0.1852141 -0.035344653 0.0026193794
-0.1748035 -0.035755657 0.0025139099
-0.16475038 -0.035398547 0.0026288428
-0.15423809 -0.035164036 0.0027765962
-0.14485504 -0.035501141 0.0027224044
-0.13513277 -0.035155486 0.0025335106
-0.12503794 -0.035327289 0.0023880457
-0.11505299 -0.034915164 0.0026176006
-0.10575793 -0.03531494 0.00269262
-0.09501157 -0.035321351 0.0024400058
-0.085070178 -0.03519896 0.0026251306
-0.074830301 -0.035219323 0.0025693621
-0.065029375 -0.035789255 0.0024161905
-0.055038746 -0.035185173 0.002499043
-0.044437133 -0.034784235 0.0025521014
-0.03442429 -0.034321498 0.002740969
-0.024996456 -0.034686223 0.0026617518
-0.015337823 -0.034415361 0.0027108216
-0.0054581454 -0.034645185 0.0023139091
0.0057325871 -0.034730949 0.0024793253
0.015234276 -0.034704793 0.0025496646
0.02482379 -0.034213979 0.0026390941
0.034887664 -0.035362311 0.0025411504
0.0446527 -0.034803435 0.0024865258
0.055668112 -0.035307348 0.0024552057
0.065629348 -0.035554484 0.0024188985
0.074894227 -0.03558562 0.002750451
0.084658608 -0.034741946 0.0022946193
0.094330713 -0.035181411 0.0025537361
0.1056591 -0.034958728 0.0023333021
0.11520364 -0.035408337 0.0026986597
0.12498979 -0.035132967 0.0024894769
0.13508433 -0.035406485 0.0024582762
0.14542641 -0.0347955 0.0022547739
0.15498039 -0.035117038 0.0024445395
0.16538644 -0.035266247 0.0024193472
0.17539486 -0.034863327 0.0024167777
0.1854413 -0.035180531 0.002375782
0.19449399 -0.035384666 0.0023853187
0.20448801 -0.034856744 0.0023643726
0.21501949 -0.034401283 0.0023845963
0.22518945 -0.035008702 0.0023037028
0.23479713 -0.035033789 0.0025126135
0.24465255 -0.035356842 0.0024151728
0.25137135 -0.035747007 0.0017144916
-0.25262734 -0.024950003 0.0022046643
-0.24426845 -0.024758996 0.0027428002
-0.23497799 -0.024913494 0.0027732053
-0.22529346 -0.024307499 0.0026190856
-0.2151981 -0.024667317 0.0025979744
-0.2051295 -0.024779717 0.0024686349
-0.19501299 -0.024702031 0.0028670167
-0.18475811 -0.025049986 0.0023818763
-0.17517117 -0.025031995 0.0027199097
-0.16527928 -0.025708811 0.002598193
-0.1547167 -0.024998665 0.0025062088
-0.144888 -0.025097329 0.0029086827
-0.13465279 -0.024812279 0.0024686987
-0.12527536 -0.024892239 0.0025068014
-0.11520599 -0.024772394 0.0025189838
-0.10554617 -0.025085412 0.0025115695
-0.095053382 -0.02524502 0.002372249
-0.084913082 -0.024619436 0.0027852603
-0.074534543 -0.024851767 0.0023646026
-0.06493777 -0.024981204 0.0027862508
-0.055351492 -0.025473392 0.0024418014
-0.044680726 -0.024606282 0.0027036329
-0.034807336 -0.024543904 0.0024340311
-0.025339542 -0.024471344 0.0028851624
-0.015600258 -0.024894033 0.0024239852
-0.005761412 -0.02505764 0.0022843541
0.0057517001 -0.024803357 0.0025175556
0.015256342 -0.024842272 0.0023551544
0.025219535 -0.024434537 0.0027659088
0.034877542 -0.02477481 0.0025122219
0.044754256 -0.024510382 0.0027553062
0.055607535 -0.024840161 0.0025933927
0.065492749 -0.025134489 0.0025041159
0.074883431 -0.024366761 0.0026727717
0.084795959 -0.024371043 0.0023998104
0.094104618 -0.024866072 0.0025605508
0.10512843 -0.024684781 0.0023167906
0.11555734 -0.02513383 0.0025280055
0.12454536 -0.024742436 0.002516536
0.13484384 -0.025272554 0.0025487447
0.14498216 -0.025135271 0.0022120099
0.15512817 -0.024733828 0.0027112993
0.16512613 -0.024853643 0.0024815018
0.17520617 -0.024806997 0.0025736694
0.18557188 -0.024486504 0.0025126988
0.19451556 -0.025059985 0.0024398915
0.20435327 -0.024618212 0.0024356199
0.2148551 -0.024378745 0.0023920373
0.22512302 -0.024837105 0.0023940019
0.23508634 -0.024723761 0.0023858962
0.24467118 -0.025080776 0.0024300693
0.25210547 -0.024556499 0.0018543875
-0.25161064 -0.015791822 0.0027292578
-0.2445363 -0.015674092 0.0026819808
-0.23502733 -0.014992855 0.0024733022
-0.22502469 -0.015035603 0.0028485297
-0.21512151 -0.015490774 0.0022021509
-0.20498788 -0.015898712 0.0027905405
-0.19510902 -0.015973691 0.0022499461
-0.18451773 -0.015057834 0.0024682188
-0.1750778 -0.015643708 0.0027029493
-0.16522394 -0.015287663 0.0025918526
-0.1545651 -0.015469344 0.0023731049
-0.14503554 -0.0152187 0.0026788751
-0.13427779 -0.015188713 0.0024352765
-0.12457989 -0.014846724 0.0024070733
-0.11447024 -0.015346702 0.0027037004
-0.10543269 -0.015648033 0.0026322135
-0.094629072 -0.015169526 0.0025120557
-0.085013583 -0.015072879 0.0027973372
-0.074564479 -0.014950688 0.0024722808
-0.06473653 -0.014872405 0.0027855278
-0.055065092 -0.015277624 0.0023610045
-0.044568799 -0.015199399 0.0024556608
-0.034702208 -0.014695865 0.0025964335
-0.02523029 -0.015146276 0.0027622608
-0.015355479 -0.015792448 0.0025385646
-0.0058343341 -0.01580574 0.0023739049
0.0057783984 -0.015693622 0.0024248236
0.01517332 -0.015716603 0.0025346361
0.02506263 -0.014887546 0.0027007516
0.035101544 -0.014939049 0.0025254972
0.044731233 -0.014988637 0.0024295577
0.055526305 -0.014668286 0.0025211989
0.065746188 -0.014888093 0.0023739557
0.075392738 -0.014831854 0.0024874413
0.084805064 -0.014882228 0.0023431114
0.094268493 -0.01490631 0.0025818136
0.10531587 -0.014843891 0.0023860822
0.11558598 -0.015182555 0.0023536787
0.1242818 -0.014790034 0.0025275815
0.13481015 -0.015230138 0.0025535454
0.14465417 -0.01565852 0.0020536061
0.15470885 -0.01531038 0.0026632785
0.16488022 -0.014743257 0.0024332087
0.17472757 -0.014930869 0.0024125413
0.18525995 -0.015077153 0.0023984383
0.19433893 -0.014975078 0.0024030192
0.20436902 -0.014998274 0.0023788786
0.21472652 -0.015186929 0.0023644504
0.22489291 -0.015234719 0.0024578022
0.23485847 -0.015105486 0.0024130254
0.24415612 -0.01472951 0.0022825263
0.25137338 -0.014582316 0.0017026101
-0.2522735 -0.0055237603 0.0019193178
-0.24466515 -0.0054719262 0.0029434643
-0.23562057 -0.0050230813 0.0024809057
-0.22539544 -0.0053154095 0.002474342
-0.21516113 -0.005502928 0.0024927272
-0.20471078 -0.0059104827 0.0024349294
-0.19485182 -0.0054139104 0.0023950515
-0.18430951 -0.0052795033 0.0021461542
-0.17441444 -0.0051603843 0.0028975271
-0.16513786 -0.0049767662 0.0023442255
-0.15534344 -0.0054194429 0.0026189042
-0.14501031 -0.005274849 0.0025454359
-0.13426261 -0.005054838 0.0024830839
-0.12432247 -0.0051333643 0.002402069
-0.11430877 -0.0044261883 0.0027188994
-0.10509767 -0.0049724681 0.0025328589
-0.094692372 -0.0049819616 0.0023380036
-0.084553055 -0.0054404596 0.002855805
-0.074950226 -0.0051066587 0.0023439708
-0.0648693 -0.0046521146 0.0025509617
-0.054877445 -0.0046657291 0.0024043075
-0.044611536 -0.0053853719 0.0025832036
-0.034951176 -0.0051796809 0.0024556245
-0.025335034 -0.0054832692 0.0026497494
-0.015664155 -0.0054838043 0.002393814
-0.0056626783 -0.0051168888 0.0023514701
0.0057412074 -0.0054122377 0.0023833371
0.015565935 -0.0054907361 0.0023608045
0.02509724 -0.0053033335 0.002501657
0.035062686 -0.0052635279 0.0023138185
0.044766258 -0.0053266981 0.0025001597
0.055746578 -0.0046753958 0.0024833737
0.065769732 -0.0046109431 0.0023360497
0.075225808 -0.0052344045 0.0026217303
0.084796339 -0.0050980095 0.0023523576
0.094497852 -0.0049127112 0.0025086652
0.10522797 -0.0045727044 0.0022815024
0.11542387 -0.0050481185 0.002598092
0.12474864 -0.0044297092 0.0024792699
0.13454424 -0.0052564256 0.002513512
0.14506084 -0.0052099181 0.0021167605
0.15498911 -0.0055751069 0.0025741542
0.16468728 -0.0051698196 0.0021896216
0.17458732 -0.0050150785 0.0023430595
0.18492837 -0.0051695653 0.0023151238
0.1948923 -0.0050966614 0.0023595393
0.2049156 -0.0050607268 0.0022401279
0.21511476 -0.0052112024 0.0023842659
0.22482245 -0.0051086522 0.0024372784
0.23482101 -0.0051016621 0.0022399833
0.24440214 -0.004972701 0.0023743827
0.2512407 -0.0059776832 0.0024092011
-0.25158828 0.0050745751 0.0015321318
-0.24494335 0.0049749073 0.0026069595
-0.23528428 0.005668248 0.0028038004
-0.22607757 0.0051529515 0.0025959259
-0.21534503 0.0053006154 0.0027388074
-0.20506017 0.0047890591 0.0025145039
-0.19464734 0.0052457284 0.0024909189
-0.18432663 0.0053528752 0.002411156
-0.17437552 0.0054572392 0.0027441715
-0.16517889 0.004492641 0.0026881131
-0.15540475 0.0047608512 0.0025128378
-0.14518344 0.0050240657 0.0026997975
-0.13432553 0.0055150869 0.0025491079
-0.12469912 0.0054989792 0.0025010377
-0.11410743 0.0057115979 0.0026931011
-0.10518941 0.0053525809 0.0024915484
-0.094687112 0.0052599628 0.0024097539
-0.084998526 0.0045463499 0.0027315684
-0.075385146 0.0050658961 0.0025725267
-0.06482926 0.0051641124 0.0026803976
-0.055122133 0.0053606788 0.0023397333
-0.044633765 0.0050543607 0.0025336945
-0.034674585 0.0048487028 0.0025899685
-0.025277378 0.00484053 0.0026740159
-0.015041187 0.0046583652 0.0025139381
-0.0056068366 0.0056671435 0.0023007216
0.0057344479 0.005619871 0.002411695
0.01532995 0.0047729486 0.0024196387
0.025265148 0.0044908738 0.002670951
0.035107784 0.0049313037 0.0024311785
0.04473865 0.0049227285 0.0024415927
0.055819165 0.0050472668 0.0025943075
0.065719202 0.0050786752 0.0024636893
0.075266436 0.0049817516 0.0026028317
0.084598422 0.0050807483 0.0024969771
0.094473116 0.0053355009 0.0024670002
0.10571515 0.0049205725 0.0023681866
0.11521023 0.0052222013 0.0025057199
0.12477473 0.0052336087 0.0025128617
0.13466316 0.0047653406 0.0024500035
0.14509934 0.0053072474 0.0022378433
0.15516956 0.004858511 0.0025726699
0.16516262 0.0045149694 0.0024415567
0.17495498 0.0047511766 0.0022485754
0.18498211 0.0050607491 0.0023223581
0.19496019 0.0051069972 0.0023045021
0.20473416 0.0049753189 0.0024063105
0.21527751 0.0052811401 0.002329211
0.22511826 0.0051797754 0.0023576762
0.23484556 0.0052181757 0.002350338
0.2446035 0.0046073105 0.0023805897
0.25178647 0.0037541392 0.0024358497
-0.25137827 0.014230253 0.0028169784
-0.24456991 0.015434059 0.0026742455
-0.23510352 0.015383776 0.0027567165
-0.22550291 0.015138364 0.0027689775
-0.21568678 0.01565244 0.0026816924
-0.20499213 0.01538245 0.002851004
-0.19534633 0.015831444 0.0028651676
-0.1843206 0.015575841 0.002576814
-0.17496167 0.015123795 0.0028738293
-0.16465639 0.015029832 0.0024450964
-0.15497324 0.015264052 0.0027580524
-0.14511758 0.01523794 0.0028434778
-0.13460891 0.015034112 0.0027559041
-0.12492502 0.015262512 0.0026392471
-0.11443473 0.014615799 0.0028311997
-0.10478795 0.014821689 0.0025856073
-0.094513156 0.014729979 0.0026036154
-0.085178748 0.014534491 0.0029691213
-0.075407341 0.014879821 0.0026277457
-0.065046385 0.015397185 0.002752857
-0.055064477 0.015477783 0.002517821
-0.044795163 0.01477293 0.0026936962
-0.034528363 0.014608764 0.0027365936
-0.024841536 0.015323425 0.0028699783
-0.01526533 0.014900269 0.0027136502
-0.0056783413 0.01582771 0.0025235338
0.0060367701 0.015300961 0.0027458258
0.015618987 0.015079361 0.0025674731
0.025235284 0.014897014 0.0027757571
0.034977634 0.01505637 0.0027484167
0.044841405 0.014738026 0.0027284836
0.055167947 0.015064916 0.0025544562
0.065396525 0.01537929 0.0026351234
0.075111628 0.015220174 0.0027949139
0.08472009 0.015132696 0.002633624
0.094560988 0.015157002 0.0027564336
0.10511611 0.014827925 0.002480688
0.11563524 0.015029565 0.002500382
0.12494002 0.014576968 0.0026088867
0.13495554 0.014598132 0.0026753815
0.14479378 0.015408853 0.0024285684
0.15489046 0.014879018 0.0027691838
0.16482912 0.014831874 0.0024114938
0.1750911 0.014838853 0.00268269
0.1854648 0.015010955 0.0025304395
0.19466987 0.015059027 0.0026642941
0.20492539 0.01484145 0.0025458662
0.21485992 0.015749389 0.0025749444
0.22507089 0.014798512 0.0025670473
0.23484336 0.015287892 0.002619639
0.24490333 0.015130619 0.0025572474
0.25225073 0.016203063 0.0022758981
-0.25122413 0.025465939 0.0030153983
-0.24461292 0.025538141 0.002692593
-0.23525016 0.025256677 0.0026359174
-0.22604106 0.024935508 0.002682972
-0.21571319 0.026257079 0.0027337053
-0.20508154 0.025382206 0.002610387
-0.19481845 0.025871241 0.0027951738
-0.1847201 0.025719486 0.0024841025
-0.17482443 0.025877476 0.0026688755
-0.16490771 0.025926534 0.0025740208
-0.15512551 0.025742855 0.00270272
-0.14540219 0.025386771 0.0029036675
-0.13468663 0.025272971 0.0024918907
-0.12503754 0.024974233 0.002429818
-0.11464676 0.024278533 0.0026570037
-0.10498291 0.024688244 0.002610229
-0.095014416 0.024789887 0.0024008229
-0.085511565 0.024820313 0.0028789679
-0.075466476 0.025244476 0.002496809
-0.065122381 0.025446337 0.0027401797
-0.054886524 0.025353558 0.0024625694
-0.044634029 0.025503093 0.0027822102
-0.034756623 0.025021516 0.0025438641
-0.025099147 0.025102666 0.0027796258
-0.015284827 0.025320567 0.0024851167
-0.0054895235 0.025291286 0.0025560122
0.0058384514 0.025028447 0.002479262
0.016006069 0.025159148 0.0023761922
0.025337463 0.024903059 0.00276273
0.035035409 0.025309641 0.0024552869
0.044726953 0.025036499 0.0026375377
0.055350564 0.025487741 0.0024186794
0.065288499 0.02528638 0.0025393378
0.075247467 0.02574298 0.0025392706
0.084782839 0.02490999 0.0024960169
0.094858758 0.0253009 0.0023986592
0.10530519 0.02495181 0.0022535608
0.11547466 0.02471792 0.0024903887
0.12505332 0.024948684 0.0025311899
0.134812 0.025235305 0.0025458881
0.14493488 0.025068708 0.0022545166
0.15477745 0.024793867 0.0025939969
0.16488589 0.025156934 0.0025064684
0.17521308 0.024721136 0.0024065773
0.18532506 0.024650959 0.0024557018
0.19454041 0.025075929 0.0024305978
0.20461705 0.025556706 0.0024228964
0.21494403 0.025184337 0.0023518829
0.22472401 0.024736624 0.0024576769
0.2348166 0.025201969 0.0023295667
0.24446933 0.025280211 0.0022356664
0.25193927 0.026351804 0.0018031362
-0.25152293 0.036529254 0.0029837217
-0.24493012 0.034828261 0.0024624642
-0.23531246 0.034464989 0.0024773418
-0.22489087 0.03479692 0.0027158121
-0.21515323 0.035692003 0.0025415744
-0.20472807 0.035076104 0.0026180379
-0.19497459 0.035294954 0.0025602377
-0.18435246 0.035080411 0.0024313498
-0.17501464 0.035291847 0.0024632276
-0.16481106 0.03568602 0.0023459436
-0.15521738 0.035389125 0.0025065253
-0.14485185 0.035278499 0.0029184071
-0.13460532 0.034496315 0.0023260664
-0.12499771 0.034784619 0.0025879242
-0.1146168 0.034481525 0.0024226534
-0.10506572 0.0346056 0.0025168573
-0.095011987 0.035015892 0.0023351465
-0.08553192 0.03490537 0.0027749485
-0.075728185 0.035203468 0.0023788169
-0.064748138 0.034896586 0.0026004133
-0.055055689 0.034753006 0.0023481781
-0.044527426 0.035071597 0.0023619777
-0.034336008 0.035364155 0.0025061546
-0.025021365 0.035229962 0.0027197106
-0.01503087 0.03475517 0.0024471658
-0.0055706804 0.034560174 0.002353135
0.0059839305 0.034587309 0.0024619701
0.015600209 0.034536693 0.0024542566
0.025234522 0.034980673 0.0027259779
0.034925312 0.03511361 0.0026002885
0.044483203 0.034857322 0.0025347627
0.05506276 0.034837428 0.0023473182
0.065209493 0.034734797 0.0024689839
0.075161636 0.035502471 0.0026787047
0.085022457 0.035146315 0.0025129858
0.094522379 0.034984905 0.0025131181
0.10540601 0.034878753 0.0023359405
0.11537313 0.035123963 0.0025891212
0.12541007 0.034701698 0.0023623209
0.13472995 0.03532967 0.0025576509
0.14505208 0.035087124 0.0023231725
0.15472127 0.034667898 0.0024414344
0.1650015 0.034952424 0.0024029647
0.17542709 0.034470551 0.002325237
0.18544389 0.034548771 0.0022850125
0.19472575 0.035323467 0.0024829439
0.20478281 0.035663024 0.0022907022
0.21492831 0.035062652 0.002443736
0.22522341 0.03514652 0.0023695184
0.23456751 0.035172231 0.0025049637
0.24449575 0.03484549 0.0023974797
0.25094992 0.034085337 0.0019934629
-0.25134644 0.044998545 0.0028569116
-0.24385655 0.045182593 0.0023864349
-0.23455575 0.044652298 0.0026137533
-0.22489069 0.044281308 0.0026518737
-0.2147073 0.045044173 0.0026271928
-0.20430142 0.045051236 0.0027163718
-0.19469437 0.044481039 0.002435799
-0.18434222 0.04480708 0.0024997941
-0.17503898 0.045154933 0.0024868832
-0.16508336 0.044940006 0.0023037859
-0.15430062 0.044819675 0.0027201795
-0.14507082 0.045038216 0.0028080437
-0.13458477 0.044815168 0.0025286945
-0.12480367 0.044691879 0.0024451122
-0.1141405 0.044564247 0.0026095184
-0.10507108 0.044737548 0.0025761148
-0.095063455 0.045128256 0.0025291985
-0.085069805 0.04498167 0.0026586517
-0.075694583 0.04490393 0.0025507133
-0.064625777 0.044791367 0.0026201452
-0.054938633 0.044396441 0.0023696176
-0.044493239 0.044612322 0.0024027408
-0.034232136 0.045201525 0.0025172587
-0.024826171 0.045519449 0.0026197347
-0.015171855 0.044527832 0.0025546013
-0.0056177131 0.044631388 0.0023896652
0.0058715208 0.044624507 0.0023458423
0.015700985 0.044862937 0.0024959131
0.02538415 0.045164172 0.0025741875
0.035230909 0.044691339 0.002472017
0.044583902 0.045016158 0.0024581486
0.055184249 0.044371419 0.0025000311
0.06514933 0.044616457 0.0024092884
0.07482852 0.044902291 0.0027695107
0.084779881 0.045266986 0.0025313734
0.094844244 0.044826251 0.0023638252
0.10502696 0.045365773 0.0023360674
0.1154508 0.044715304 0.0025109223
0.1247319 0.044893462 0.002515526
0.13494723 0.044847362 0.0025291846
0.14527997 0.045056805 0.0022393067
0.155396 0.045037027 0.0024876532
0.16487211 0.044644553 0.0024148806
0.17538223 0.044872444 0.0025146601
0.18490699 0.044753678 0.0024060507
0.19484848 0.045109171 0.0023313805
0.20499708 0.044971231 0.0023170174
0.21473771 0.045069579 0.0023427219
0.22473514 0.045206342 0.0024004302
0.2348076 0.044847474 0.0021728387
0.2443476 0.044745512 0.0024607582
0.25165537 0.044775013 0.0022700515
-0.25255376 0.05432421 0.0025188038
-0.24442044 0.054997522 0.0025445463
-0.23495951 0.055271242 0.0027632383
-0.22516052 0.054021761 0.0027668052
-0.21437672 0.055522241 0.0025046689
-0.20461287 0.054916706 0.0026789724
-0.1951935 0.054231741 0.002253942
-0.18505526 0.054989289 0.0028425287
-0.17501798 0.055258397 0.0023614196
-0.16471185 0.055272531 0.0023852084
-0.1547446 0.054976482 0.0025001667
-0.14518334 0.055257615 0.0027762395
-0.1346367 0.05538889 0.0024250117
-0.12487771 0.055280663 0.0026580852
-0.11450758 0.055195224 0.0026353714
-0.10519526 0.054979753 0.0027427941
-0.095172673 0.055414867 0.0024091697
-0.085358664 0.054968983 0.0025640284
-0.075095557 0.055051994 0.0024307293
-0.064568862 0.054951575 0.0026354585
-0.055106398 0.05469244 0.0024078996
-0.045021188 0.055303425 0.0024999857
-0.034465708 0.054836195 0.0025188716
-0.024901507 0.055522535 0.002831606
-0.015030364 0.055274468 0.0025635026
-0.0056369258 0.055723388 0.0024130968
0.0057345722 0.055020012 0.0023494819
0.015817378 0.055264499 0.0023922813
0.025454825 0.054887895 0.0023580098
0.035012748 0.055372395 0.0024967974
0.044502918 0.055261575 0.002341442
0.054888953 0.055000186 0.0023030997
0.064683378 0.054858122 0.0025158371
0.07465215 0.054764923 0.0027662304
0.084958561 0.054941207 0.0023863513
0.094990291 0.054923557 0.002461998
0.10551628 0.055465948 0.0023132416
0.11514819 0.05473721 0.0026749871
0.12508413 0.055356465 0.0024573749
0.1347762 0.054889858 0.0023868221
0.14512409 0.054732911 0.0024324197
0.1552144 0.055143435 0.002379471
0.16520283 0.054988358 0.0024983082
0.17516787 0.05514231 0.0024452694
0.18518084 0.055105656 0.0024768496
0.19517678 0.055205364 0.0023709242
0.20496674 0.055146746 0.0024761059
0.2143943 0.055262096 0.002279867
0.22479373 0.055150256 0.0023808915
0.2348997 0.054905277 0.0023286487
0.24437003 0.055004209 0.0023808586
0.25198406 0.054153606 0.0017049193
-0.25208169 0.063477956 0.0024629766
-0.24437791 0.06510555 0.002488682
-0.23490934 0.065652505 0.0025235647
-0.22536856 0.064264566 0.0027017777
-0.21522483 0.065374881 0.0024545621
-0.20460422 0.06426236 0.0029818953
-0.1945487 0.064572193 0.0022490246
-0.18507393 0.06562236 0.0026869066
-0.17493549 0.065220006 0.0024440179
-0.16533837 0.064816944 0.0024552061
-0.15495203 0.064016439 0.0026233599
-0.14528292 0.065647051 0.0028657175
-0.13470267 0.065099932 0.0027004606
-0.12487319 0.06565652 0.0023811769
-0.11436241 0.065078042 0.0025489347
-0.10519572 0.065346345 0.0026967581
-0.095190786 0.06507843 0.0025552297
-0.085474722 0.064919412 0.0027384963
-0.074961007 0.064748205 0.0023738309
-0.064713858 0.064898662 0.0026756823
-0.055327483 0.064812243 0.0025250614
-0.044787522 0.064560667 0.0027241537
-0.034534514 0.065070778 0.0025895422
-0.025207939 0.065689832 0.0027502347
-0.015102951 0.065835103 0.0025740154
-0.0059015732 0.065569147 0.0024111909
0.0056884345 0.065508582 0.0025583773
0.01573354 0.065074153 0.0025152152
0.025288388 0.064499125 0.0027823513
0.034946937 0.065294541 0.0025788306
0.044643711 0.064938582 0.002439298
0.054615494 0.065128155 0.0023802924
0.064585336 0.06508863 0.002744721
0.074968763 0.064706914 0.0026908338
0.084913 0.064612255 0.0024636176
0.094897397 0.065037891 0.002339558
0.10547663 0.065396503 0.0024061888
0.11548866 0.065238267 0.0025501712
0.12519093 0.065257654 0.0023372632
0.13510264 0.065273143 0.0023901595
0.14494607 0.065122426 0.0024610632
0.15518589 0.06514781 0.0025299122
0.16493262 0.064990163 0.0024190326
0.17498843 0.06535887 0.0024935876
0.18498771 0.06511429 0.0024397618
0.19523424 0.064892173 0.0025576188
0.20485613 0.06514506 0.0024142773
0.21431784 0.065197051 0.0025443751
0.22513203 0.065201394 0.0024527046
0.23486619 0.064779282 0.0023497269
0.24461897 0.065124229 0.0023376462
0.2512548 0.064848363 0.0019099313
-0.25241575 0.075792342 0.0020942921
-0.24405673 0.075222649 0.0023798081
-0.23536445 0.075012133 0.0028475688
-0.22503895 0.074469797 0.0024837879
-0.21534935 0.07519868 0.0025988705
-0.20494246 0.075369105 0.0028234501
-0.19506809 0.075059198 0.0025119639
-0.18527094 0.075350329 0.0022953534
-0.17519271 0.075186059 0.0024432079
-0.16517954 0.074817583 0.0024243016
-0.15447032 0.074314229 0.0026892531
-0.14475496 0.075380892 0.0025390256
-0.13502932 0.075373016 0.0027037242
-0.12511586 0.075591415 0.0022836803
-0.11424311 0.07452561 0.0027080406
-0.10482149 0.075235687 0.0026907909
-0.094903409 0.075245827 0.0026271017
-0.085285664 0.074983284 0.0024582138
-0.07514099 0.075171553 0.0026596638
-0.064369313 0.075061381 0.0024392833
-0.055093434 0.075149596 0.0025062144
-0.04468051 0.074556321 0.0024701967
-0.034596588 0.075198695 0.0025096703
-0.025022235 0.075314268 0.0027736055
-0.015210695 0.075462021 0.0023836086
-0.0054510115 0.075265378 0.0024210324
0.0058643031 0.075346418 0.0023655726
0.015845891 0.074930109 0.0025483195
0.025618171 0.074911326 0.0026596817
0.034704808 0.075083062 0.0027060774
0.044462342 0.074945636 0.0023569562
0.054733429 0.074769646 0.002513557
0.065263018 0.074997403 0.0024951494
0.074913107 0.075115077 0.0027329596
0.084587008 0.07556241 0.002334815
0.094904743 0.075468302 0.002388468
0.10535014 0.075339667 0.002240215
0.11505697 0.074779563 0.0026712269
0.12518036 0.075635239 0.0024767367
0.13503627 0.075403683 0.0025359045
0.14495546 0.075340956 0.0023783771
0.1553462 0.075254031 0.0024766689
0.16474153 0.075379647 0.0024761271
0.17519057 0.075272605 0.0023639228
0.18500194 0.075449497 0.0022586947
0.1951388 0.074748434 0.0023911311
0.20479915 0.075514406 0.0022494451
0.21488966 0.07543879 0.0022973011
0.22521527 0.075370938 0.0022172583
0.2346388 0.075286798 0.0022887741
0.24435867 0.075149745 0.0024359762
0.25158024 0.076226905 0.0015839409
-0.25201735 0.084873222 0.0018433894
-0.24344915 0.08445394 0.0026930517
-0.23499069 0.084615976 0.002463985
-0.22467707 0.084395513 0.0026503236
-0.21484835 0.084961988 0.0024754808
-0.20446211 0.08527863 0.002697971
-0.19508125 0.084895417 0.0026581709
-0.18513826 0.085168682 0.0027549057
-0.1750928 0.084845059 0.0025049238
-0.16519628 0.085243881 0.002492809
-0.1545797 0.085073262 0.0027307642
-0.14491859 0.085462965 0.0027949745
-0.13480836 0.084931158 0.0024495497
-0.12489393 0.084709287 0.0024396665
-0.11463626 0.084607802 0.0025899182
-0.10523558 0.084689237 0.0025294453
-0.095035978 0.084917441 0.0023555404
-0.084960841 0.08548715 0.0026680536
-0.075056143 0.085620627 0.0022144124
-0.064405747 0.085061967 0.0025257566
-0.055181991 0.084993243 0.0023733426
-0.044774972 0.084804073 0.0025720599
-0.034781262 0.084887408 0.0025367776
-0.025245212 0.085445791 0.0027780964
-0.015105046 0.084153123 0.0025648871
-0.0054781474 0.084656172 0.002451852
0.0060017146 0.084457353 0.0024228457
0.015470328 0.084571786 0.0027142151
0.025352012 0.085226491 0.0026441328
0.034981098 0.085007034 0.0026019244
0.044708535 0.084787175 0.002652629
0.054553568 0.084506609 0.0023639756
0.065154307 0.084642753 0.0026566628
0.074666299 0.08529219 0.0025261387
0.084895052 0.085981205 0.0024192845
0.094922341 0.08525639 0.0024851346
0.10508925 0.084582344 0.0025063513
0.11520343 0.084527254 0.0025883683
0.12481374 0.085212819 0.002490245
0.13482398 0.084975451 0.0024410177
0.14510615 0.084751122 0.0024506322
0.15557913 0.085491195 0.0024936302
0.1652488 0.085033044 0.0023952639
0.1750811 0.085094787 0.0025269741
0.18476059 0.08495374 0.0022082727
0.19470955 0.085262954 0.0024773243
0.20509028 0.085576929 0.0023209522
0.21514665 0.08487992 0.0023335179
0.22480154 0.084930666 0.0024658449
0.23414183 0.084888093 0.002349128
0.24503261 0.084972575 0.0024040313
0.25207308 0.085114956 0.0015828743
-0.2521562 0.094020367 0.0020864145
-0.24406511 0.094356462 0.0028121416
-0.23452465 0.094719209 0.0025784152
-0.22496647 0.094734013 0.0026911783
-0.21502034 0.095142908 0.0023561516
-0.20509954 0.094708264 0.0027046998
-0.19492666 0.09494143 0.0023237376
-0.18461269 0.095340587 0.0026756981
-0.17465062 0.095310174 0.0024444249
-0.16544563 0.094915576 0.0025635173
-0.15479894 0.095545426 0.0024107597
-0.1453658 0.095426008 0.0024305331
-0.13500707 0.094964534 0.0026012163
-0.12515654 0.094399482 0.0025480145
-0.11476754 0.094859093 0.0025956372
-0.10559517 0.095213898 0.0026963514
-0.095032156 0.095125169 0.0024316423
-0.085113592 0.096002288 0.002620219
-0.074555665 0.095575199 0.0024655412
-0.064469986 0.095337182 0.0026907986
-0.054920807 0.09519431 0.0024317373
-0.044919837 0.094634466 0.0023648909
-0.034581997 0.095055483 0.0024571326
-0.025060844 0.095378071 0.0026249951
-0.015312495 0.094620451 0.0025996885
-0.0055476651 0.095222667 0.0023469871
0.0058257561 0.094893001 0.0024524778
0.015739394 0.09471295 0.00237663
0.025098054 0.0949466 0.0025050228
0.034597199 0.09553846 0.0023557232
0.044620462 0.094932683 0.0023299572
0.054683559 0.094950072 0.0023039412
0.064938724 0.094889879 0.002503616
0.075070873 0.095150314 0.0023058469
0.084797427 0.095383555 0.0023815117
0.094940409 0.095060758 0.0024350083
0.10549901 0.094665289 0.0025191731
0.11477688 0.094648406 0.0024689722
0.12465514 0.094596013 0.0024801355
0.13523646 0.094547607 0.0024424978
0.14516163 0.094612986 0.0024264851
0.15522918 0.095280468 0.0023402164
0.16526248 0.094753869 0.0024659268
0.1750579 0.095024548 0.0022658757
0.18450332 0.095050126 0.0024637049
0.19506253 0.095091894 0.0023436989
0.20558149 0.09517508 0.0024016285
0.21542826 0.094968051 0.0025448727
0.22470403 0.094543777 0.0022973905
0.23440935 0.094583005 0.0024186757
0.24475387 0.094510809 0.0024462421
0.25228223 0.094524495 0.0014695479
-0.25266612 0.10356197 0.0021176038
-0.24414602 0.10507518 0.0022892216
-0.23477268 0.10465978 0.0026359218
-0.22445577 0.10472713 0.0027475934
-0.21481255 0.1045851 0.002749393
-0.20498553 0.10481227 0.0022351942
-0.1948548 0.10482097 0.0025646978
-0.18479969 0.10510433 0.0025967618
-0.17527921 0.10530532 0.0024990481
-0.16508786 0.10498688 0.0022735065
-0.15476139 0.10461199 0.0027436237
-0.14516884 0.10454116 0.0025235598
-0.13515912 0.10484312 0.0024078365
-0.12571137 0.10469183 0.0023972443
-0.11524242 0.10483442 0.002462483
-0.10568421 0.10487135 0.002628857
-0.095353827 0.10540584 0.0025595161
-0.084933259 0.10568667 0.002622406
-0.074774541 0.10549137 0.0024367392
-0.064315706 0.10486999 0.0023752148
-0.055246428 0.10457104 0.0024981322
-0.044406332 0.1048101 0.0024439637
-0.034722317 0.10418017 0.0024766079
-0.025068924 0.10562084 0.0027107145
-0.015181052 0.10521324 0.0025918556
-0.0057805232 0.10558034 0.0023565816
0.0058267247 0.10524067 0.0022988271
0.015759058 0.10474928 0.0025311357
0.025225202 0.10444927 0.0024421278
0.034749743 0.10566452 0.0026020233
0.044886217 0.10523315 0.0022703863
0.054657444 0.10467988 0.002540481
0.065383472 0.1053365 0.0025567568
0.074962988 0.10465672 0.0025190311
0.084228382 0.10490976 0.0023279148
0.094775595 0.10452621 0.002326295
0.10513189 0.10444561 0.0023668525
0.11504086 0.10490283 0.0024532895
0.12467071 0.10477877 0.0023479511
0.13473633 0.10457039 0.0023835234
0.14503597 0.10489269 0.002344195
0.15536211 0.10513188 0.0024998954
0.16511002 0.10516487 0.0023399505
0.17505516 0.10493509 0.0023757038
0.18488744 0.10488456 0.0022072906
0.19503039 0.10450262 0.0024062656
0.20495488 0.10513341 0.0022094073
0.21515253 0.10506475 0.0023237797
0.22441834 0.10455488 0.0024111769
0.23456301 0.10491308 0.0023282117
0.24508122 0.10443074 0.0023494258
0.25222912 0.10503442 0.0017574237
-0.25225881 0.11530153 0.0022924296
-0.24423301 0.11501695 0.0025888989
-0.23475045 0.11502791 0.0026787671
-0.22445112 0.11446255 0.002832354
-0.21454032 0.11474279 0.002654619
-0.20511639 0.11474488 0.0024534103
-0.19517745 0.11482354 0.0025210285
-0.1848716 0.11491346 0.0026536551
-0.17508951 0.11515462 0.0028184417
-0.16489214 0.11474214 0.0025371579
-0.15470618 0.11475919 0.0026724818
-0.14511608 0.11445247 0.0025762778
-0.13530852 0.11456821 0.0027506568
-0.12550399 0.1149759 0.0026490986
-0.11496571 0.11467785 0.0024577938
-0.10548419 0.11479976 0.0029349658
-0.094866157 0.11476582 0.0024056986
-0.085109405 0.11543287 0.0026663253
-0.074763633 0.11502539 0.002521998
-0.064272456 0.11488921 0.0025993246
-0.055137496 0.11417472 0.0024282299
-0.045122452 0.11510088 0.0025536942
-0.034880012 0.11427879 0.0025024905
-0.025310654 0.11484054 0.0027561043
-0.015304496 0.11497431 0.0025614279
-0.0059092632 0.11521464 0.0024013536
0.0056319376 0.11494157 0.0025335914
0.015787128 0.11456884 0.002523426
0.025122775 0.11430342 0.0027484628
0.035118647 0.11509912 0.0025507589
0.045033593 0.11518258 0.0025123826
0.054562595 0.1151301 0.0025367935
0.064927228 0.11491484 0.0026740558
0.074841768 0.1151178 0.0024962216
0.084472895 0.11479324 0.0025703425
0.094537988 0.11483902 0.002440575
0.10495786 0.11445785 0.0026253129
0.11461122 0.1151428 0.0024758291
0.12443639 0.11499529 0.0023154705
0.13472235 0.11527165 0.0024384791
0.14511044 0.11519789 0.0024050358
0.15525973 0.11510443 0.0025315376
0.16505405 0.11492935 0.0023736749
0.17509922 0.11479503 0.0024873235
0.18487021 0.11460871 0.0025832437
0.19520834 0.11464291 0.0024138992
0.20505461 0.1150456 0.0023320413
0.21548259 0.11494214 0.00251454
0.22477786 0.11487671 0.0021547643
0.23437494 0.11502963 0.0024046679
0.2449694 0.11483924 0.0024455995
0.25209317 0.11468629 0.0016255932
-0.25263634 0.1260172 0.0014780231
-0.24464682 0.12508115 0.0024191635
-0.23457281 0.12486427 0.0024021387
-0.22484185 0.12492041 0.002892436
-0.21448943 0.12523325 0.0028896816
-0.20472169 0.12533221 0.0023719172
-0.19519563 0.12490166 0.0026702052
-0.1849159 0.1247167 0.0026135047
-0.17447563 0.12451331 0.0026206495
-0.16527873 0.12486126 0.0025090603
-0.15483141 0.12469948 0.0026588752
-0.14497876 0.12445551 0.0024418489
-0.13506028 0.12525016 0.0026409412
-0.12553404 0.125089 0.0023720297
-0.11494163 0.12452244 0.0025752804
-0.10535705 0.12436205 0.0026808265
-0.094895393 0.12505619 0.0025611352
-0.085059188 0.1251554 0.0027662495
-0.074810833 0.12506582 0.002565837
-0.064359978 0.12478384 0.0023937579
-0.054945242 0.12409284 0.0024974823
-0.044844247 0.12543692 0.0025674675
-0.035223074 0.12433226 0.0025006174
-0.025498629 0.1245978 0.0028305964
-0.015467434 0.12512544 0.0026223746
-0.0055751805 0.12480496 0.0024530867
0.0059918417 0.12473892 0.0023784959
0.015570598 0.12445424 0.0025749637
0.025239641 0.12477326 0.0026354496
0.035243705 0.12530091 0.0026211042
0.045086727 0.1247967 0.0024621924
0.054826401 0.12455439 0.0025991742
0.064909823 0.12469034 0.0025559817
0.074802257 0.1248183 0.0024657159
0.084963858 0.12497378 0.0024436379
0.094444014 0.12518536 0.0023840663
0.10483999 0.1247211 0.0025149202
0.11487214 0.12500413 0.0024694032
0.1246079 0.12504917 0.0024993038
0.13503014 0.12480757 0.0024871703
0.14481306 0.12498393 0.0024967541
0.15540531 0.12522562 0.0023738591
0.16516548 0.1244726 0.0024500089
0.17468502 0.12483478 0.0023856419
0.18484692 0.12458012 0.0024669238
0.1952776 0.12481178 0.0022323108
0.20520239 0.12483208 0.0024550653
0.21505852 0.12514038 0.0024248583
0.22458115 0.12474952 0.0023491147
0.23467593 0.12492607 0.0024191295
0.24466147 0.12471127 0.0023825914
0.25163701 0.12592998 0.0024279787
-0.25202149 0.13574271 0.0019408189
-0.24407184 0.13491969 0.0027444661
-0.23460424 0.13525786 0.002558412
-0.22456416 0.13558905 0.0026726935
-0.21497206 0.13539515 0.0026789582
-0.20519418 0.13562748 0.0023669992
-0.19523981 0.13463677 0.0023831271
-0.18495251 0.13450502 0.0025682987
-0.17540105 0.13459413 0.0024902683
-0.16531862 0.13528317 0.0025864244
-0.15522492 0.13477615 0.0026300244
-0.14515132 0.13483369 0.0025394296
-0.13488315 0.13557717 0.0026353437
-0.12457211 0.13482939 0.0025069816
-0.11440676 0.13452774 0.0024391548
-0.1052117 0.13461484 0.0025518716
-0.094584651 0.13530935 0.0024047226
-0.085179202 0.13529579 0.0025666021
-0.074773505 0.1351652 0.0024155048
-0.064554684 0.13490953 0.0025532884
-0.055427101 0.13455883 0.0023501359
-0.04511901 0.13564511 0.0025334174
-0.035258573 0.1347947 0.0023562324
-0.025365453 0.13485479 0.0026676734
-0.015437536 0.13549605 0.0026688697
-0.0058266814 0.13558532 0.0024362332
0.0056162248 0.13488328 0.0024181271
0.015651328 0.13493875 0.0024791923
0.025449736 0.13515057 0.0025526858
0.035220049 0.13552429 0.0025107628
0.045074031 0.13503455 0.0023741645
0.054922961 0.13505717 0.0025277953
0.065048665 0.13498364 0.0025476266
0.075400479 0.13515007 0.0024699008
0.084595874 0.13497776 0.0025035501
0.094717175 0.1352886 0.0023271521
0.10542082 0.13467835 0.0026075267
0.11434177 0.13486798 0.0023605251
0.12487678 0.1350842 0.002464239
0.13517641 0.13502677 0.0024139974
0.14463715 0.13525277 0.0025578972
