# .PCD v0.7 - Point Cloud Data file format
VERSION 0.7
FIELDS x y z
SIZE 4 4 4
TYPE F F F
COUNT 1 1 1
WIDTH 56
HEIGHT 1
VIEWPOINT 0 0 0 1 0 0 0
POINTS 56
DATA ascii
0.0029410103 -1.7568133e-05 -2.4687028e-05
-4.1385556e-05 0.001842624 -3.3307151e-05
0.0011776764 0.0014728297 -2.9460693e-05
0.0029746371 0.00089576124 -3.0851472e-05
0.0047680293 0.0014669802 -2.9947247e-05
0.0060316939 0.0018356915 -2.3142085e-05
-4.4178574e-05 0.0029681702 -3.0415906e-05
0.00059867441 0.0029072945 -2.9145413e-05
0.0053714286 0.0028990598 -3.0597574e-05
0.0060296576 0.0029761549 -2.6666223e-05
-3.8939444e-05 0.0046169339 -3.0351612e-05
0.00090444257 0.0050006923 -2.8717093e-05
0.0029693313 0.0056730555 -2.9520868e-05
0.0050444393 0.0050179414 -3.0590614e-05
0.0060339896 0.0046140985 -2.9637562e-05
0.0017375823 0.0061472338 -3.4615317e-05
0.0029671134 0.0063837529 -3.8041508e-05
0.0042429557 0.0061421939 -3.5014571e-05
0.0029779277 -1.6334263e-05 0.00099010218
-5.3427073e-05 0.0018290232 0.00099221128
0.0010768141 0.0012095846 0.00089296704
0.0030035204 0.00071258593 0.0008481504
0.0049551707 0.0012565677 0.00086415664
0.0060304306 0.001842615 0.00096884009
-5.6501747e-05 0.0030021747 0.0010018819
0.00095787976 0.0029559843 0.00073705311
0.0029754031 0.002539003 0.0011496824
0.0053242259 0.0029694741 0.00076157722
0.0060333782 0.0029911003 0.00098122645
-5.3026441e-05 0.0046457658 0.00099498604
0.00091908901 0.0052323188 0.00079209311
0.0030056271 0.0054485961 0.00073064736
0.0051952838 0.0051348582 0.00077729218
0.0060319607 0.0046277381 0.00097067206
0.0016575325 0.006198931 0.0009620568
0.0030017702 0.0066370638 0.00087148318
0.0043238308 0.0061873514 0.00096003391
0.0029715055 -1.6014479e-05 0.0024799169
-5.6354613e-05 0.0018270822 0.0025212078
0.0011155054 0.0013024169 0.0027018525
0.0030001563 0.00079456362 0.0027335738
0.0049055428 0.0013288357 0.0027017852
0.0060301516 0.0018425646 0.0025175561
-5.7499983e-05 0.00299642 0.0025285007
0.00074696925 0.0029209871 0.0028293352
0.0029782027 0.0023081622 0.0022010193
0.0053411839 0.0029409896 0.0027777061
0.006030655 0.002983022 0.00252367
-5.4999295e-05 0.0046434109 0.0025286961
0.00091610407 0.0051367865 0.0027663149
0.0030083058 0.0055290712 0.0027714958
0.0051445174 0.0050793188 0.0027489054
0.0060317628 0.0046285032 0.0025145935
0.001669707 0.0061930008 0.0025828891
0.0029969777 0.0065637268 0.0026880773
0.0043105655 0.0061803055 0.0025822376
