# .PCD v0.7 - Point Cloud Data file format
VERSION 0.7
FIELDS x y z
SIZE 4 4 4
TYPE F F F
COUNT 1 1 1
WIDTH 1226
HEIGHT 1
VIEWPOINT 0 0 0 1 0 0 0
POINTS 1226
DATA ascii
0.0010510115 0.0042475136 0.0029660019
0.0011404811 0.0042502265 0.0029480017
0.0012104642 0.0042611528 0.0029029509
0.0046998132 0.0042898809 0.0029031173
0.0047627478 0.0042527993 0.0029508134
0.0048497217 0.0042428956 0.0029568782
0.0049349596 0.0042355671 0.0029642335
0.0050434074 0.0042385575 0.0029686377
0.005148021 0.0042419452 0.0029678294
0.0052446928 0.0042510773 0.0029678019
0.0053453618 0.0042524128 0.0029730375
0.0054560672 0.0042417916 0.0029652168
0.0055563357 0.0042423289 0.0029667318
0.0056436658 0.0042423415 0.0029695912
0.0057390761 0.0042478819 0.0029697844
0.0058315578 0.0042391494 0.0029705518
0.0059592808 0.0042458982 0.0029583999
0.0060300655 0.0042390032 0.0029434692
-0.00011104901 0.0043387804 0.002938793
-5.0248753e-05 0.0043560131 0.0029577233
4.562096e-05 0.0043542832 0.0029713984
0.00014508444 0.0043537715 0.0029677376
0.00024525041 0.0043547442 0.0029733782
0.00034413402 0.0043485905 0.0029664296
0.00045130763 0.0043481705 0.0029703216
0.0005485118 0.0043559782 0.0029713232
0.00063774444 0.0043410729 0.0029764508
0.00075060019 0.0043512867 0.0029678165
0.00084612722 0.0043487595 0.0029681572
0.00095891242 0.0043459209 0.0029695886
0.0010466437 0.0043558944 0.0029684771
0.0011471794 0.0043475591 0.0029579783
0.0012298338 0.0043434091 0.0029707672
0.0046816301 0.0043806988 0.0029631741
0.0047429791 0.0043481635 0.00295802
0.0048440779 0.0043386547 0.0029625178
0.0049451515 0.0043412992 0.0029665292
0.0050479309 0.0043446184 0.002968662
0.0051387274 0.0043458343 0.002968861
0.0052442411 0.0043313541 0.0029712452
0.0053401296 0.0043448345 0.0029671921
0.0054458156 0.0043564355 0.0029703353
0.0055408115 0.004346027 0.0029655448
0.0056365877 0.0043531847 0.0029692957
0.005752679 0.0043570516 0.002976845
0.0058362628 0.0043443358 0.0029566858
0.0059609311 0.0043511949 0.0029615879
0.0060292445 0.0043509686 0.0029473281
-0.00010256458 0.0044016344 0.0029339218
-4.9250291e-05 0.0044502048 0.0029559077
4.9155406e-05 0.0044514006 0.002970024
0.00014137379 0.0044425777 0.0029695132
0.00025297879 0.0044530868 0.0029674545
0.00035292053 0.0044414965 0.0029710832
0.00045030337 0.0044564409 0.0029694519
0.00053892785 0.0044462886 0.0029663229
0.00063723541 0.0044494858 0.0029742368
0.00074847112 0.0044525131 0.0029680238
0.00085058372 0.004447279 0.0029690973
0.00095320732 0.004457877 0.0029714869
0.001044531 0.0044543492 0.0029669304
0.0011626207 0.0044515096 0.0029645299
0.0012372409 0.0044435784 0.0029656987
0.0046728007 0.004457301 0.0029559184
0.0047454387 0.0044550388 0.0029623648
0.0048466455 0.0044577327 0.0029639082
0.0049341712 0.004446697 0.0029745679
0.0050443462 0.0044455361 0.0029632659
0.0051410324 0.0044462318 0.002972143
0.0052404692 0.0044444255 0.0029619525
0.0053371275 0.0044536814 0.0029747211
0.0054478194 0.0044576814 0.0029695351
0.0055552158 0.0044593983 0.0029668177
0.0056541567 0.0044498025 0.0029696494
0.0057445243 0.0044467142 0.0029627623
0.0058419108 0.004453972 0.0029687614
0.005966085 0.0044449833 0.0029514639
0.0060326243 0.0044613765 0.0029479023
-0.00011639192 0.0045344392 0.0029416149
-4.8338479e-05 0.0045481194 0.0029559413
5.6238379e-05 0.0045490875 0.0029722489
0.00014677671 0.0045414311 0.0029649055
0.00025613696 0.0045457967 0.0029727623
0.00034728245 0.0045510773 0.0029719442
0.00044503895 0.0045597344 0.0029702275
0.00054919912 0.0045460425 0.0029723838
0.00064320321 0.0045562657 0.0029719872
0.00075166143 0.0045505143 0.0029690177
0.00085763523 0.0045522456 0.0029685646
0.00095954223 0.004560655 0.0029696031
0.0010451252 0.0045456509 0.0029681136
0.001156123 0.004556451 0.0029686559
0.0012510772 0.0045522214 0.0029496602
0.001316976 0.0045374171 0.0029452881
0.0045777694 0.0045761797 0.002943171
0.0046480466 0.0045569493 0.0029495566
0.0047536199 0.004553189 0.0029594367
0.0048509012 0.0045555276 0.0029700098
0.0049502975 0.0045512002 0.0029697663
0.0050438987 0.0045475736 0.0029691448
0.0051460662 0.0045462912 0.0029715665
0.0052570957 0.0045542568 0.002969716
0.0053531383 0.0045579253 0.0029722534
0.0054615224 0.0045616296 0.0029736643
0.0055555073 0.0045486018 0.0029551436
0.0056652301 0.0045457473 0.0029736585
0.005758245 0.004548125 0.002972269
0.0058481065 0.0045525762 0.0029652698
0.0059649367 0.0045473427 0.0029567466
0.0060323952 0.0045565604 0.0029530039
-0.00010738824 0.0046702386 0.0029130124
-4.7906538e-05 0.0046473187 0.0029582684
4.8080412e-05 0.0046500564 0.0029632528
0.00014524552 0.0046457355 0.0029681923
0.00025564502 0.0046471301 0.0029708496
0.00034598386 0.0046480317 0.0029684519
0.00044345224 0.004654198 0.0029709539
0.00054084143 0.00465078 0.0029672084
0.00064579409 0.0046578422 0.0029703642
0.00075427484 0.0046585728 0.0029685954
0.00086004252 0.0046588639 0.0029699279
0.00095792609 0.0046522906 0.0029667448
0.0010415837 0.0046497094 0.002968064
0.0011553467 0.0046529192 0.0029665215
0.0012645036 0.0046454007 0.0029738403
0.0013465198 0.0046655019 0.0029495517
0.0014294309 0.0046437327 0.0029334065
0.0044732899 0.0046739252 0.0029605692
0.0045571942 0.0046577924 0.0029610652
0.0046396968 0.0046487222 0.0029523149
0.0047403928 0.0046481998 0.0029704773
0.0048533119 0.0046608751 0.0029622875
0.0049563525 0.0046423511 0.002970984
0.0050527696 0.0046605873 0.0029619976
0.0051488169 0.00466108 0.0029689444
0.0052500465 0.0046548862 0.0029702557
0.0053448947 0.0046614683 0.0029661253
0.0054558511 0.0046518967 0.0029636617
0.0055570286 0.0046413387 0.0029696755
0.0056471867 0.0046528997 0.0029658664
0.0057514925 0.0046508121 0.0029652556
0.0058351276 0.0046523632 0.0029645478
0.005966045 0.0046567414 0.002951432
0.0060298266 0.0046534501 0.0029577476
-5.2746771e-05 0.0047430606 0.0029553336
4.5462974e-05 0.0047383928 0.0029752704
0.00014128046 0.0047490606 0.0029710219
0.00024214201 0.0047430666 0.0029673616
0.00034772611 0.0047442862 0.0029717921
0.00044691825 0.0047447272 0.0029699425
0.00055099773 0.0047428329 0.002970763
0.00064523797 0.0047570569 0.0029748839
0.00076195766 0.0047620353 0.0029685514
0.00086348742 0.0047487118 0.0029693996
0.00095696357 0.0047522727 0.0029686322
0.0010434135 0.0047447174 0.0029678706
0.0011618424 0.0047484711 0.0029714934
0.0012591069 0.0047453158 0.0029682573
0.0013552657 0.0047306516 0.0029566123
0.0014266028 0.004767797 0.0029487056
0.0015125172 0.0047781155 0.0029169489
0.0044538453 0.0047571403 0.0029555676
0.0045478987 0.0047554947 0.0029623457
0.0046507912 0.0047447714 0.0029695642
0.0047560264 0.004732064 0.0029703332
0.0048588091 0.0047489996 0.0029727975
0.0049581616 0.0047525628 0.0029732513
0.0050610849 0.0047555622 0.0029659879
0.0051584844 0.0047517959 0.002970858
0.0052509629 0.0047453563 0.0029676401
0.0053428388 0.0047508408 0.002971818
0.0054559358 0.0047343923 0.0029666964
0.0055480679 0.0047448166 0.0029673686
0.0056379992 0.0047457302 0.0029745856
0.0057439343 0.0047479887 0.0029643839
0.0058442606 0.0047370582 0.0029750015
0.0059624938 0.0047501787 0.0029514639
0.0060228948 0.0047516199 0.0029464196
-0.00010135096 0.0048618177 0.0029541268
-4.4652483e-05 0.0048465407 0.0029554544
5.0903218e-05 0.0048369579 0.0029690929
0.00014315422 0.0048443009 0.0029652778
0.0002521734 0.0048424709 0.002971912
0.00034884643 0.004850667 0.0029680457
0.00045343474 0.0048501217 0.0029687674
0.00054820441 0.0048517166 0.0029695404
0.00065312377 0.0048555713 0.0029722163
0.00076028978 0.0048499429 0.0029665153
0.00086495699 0.004853508 0.0029674754
0.00096478674 0.0048555331 0.0029684971
0.0010522525 0.0048461263 0.0029679539
0.0011569104 0.0048521231 0.0029702156
0.0012668229 0.0048468714 0.0029685777
0.0013568071 0.0048470306 0.0029708634
0.0014603969 0.0048473156 0.0029570078
0.0015402689 0.0048724795 0.0029545624
0.0016126335 0.0048856176 0.0029006808
0.0043696621 0.0048604482 0.0029536551
0.0044505992 0.0048514162 0.0029669204
0.0045441682 0.0048669213 0.0029577734
0.0046490608 0.0048499475 0.0029633369
0.0047625112 0.0048462315 0.002970336
0.0048535233 0.0048484029 0.0029635159
0.0049652024 0.0048499866 0.0029738522
0.0050547561 0.0048551629 0.0029676959
0.0051603089 0.0048551084 0.0029712687
0.0052572843 0.0048621558 0.0029686608
0.0053671189 0.0048537329 0.0029708156
0.005463935 0.0048478418 0.0029622759
0.0055560917 0.0048443847 0.0029696764
0.0056548268 0.004845263 0.0029645085
0.0057518482 0.0048500015 0.0029610584
0.005849801 0.0048438879 0.0029717782
0.005963895 0.0048538842 0.0029540593
0.0060315151 0.0048645781 0.0029439738
-0.00011238011 0.0049732309 0.0029529366
-4.6877762e-05 0.0049477159 0.0029574893
4.379603e-05 0.00494126 0.0029685791
0.00013503907 0.004948074 0.0029704787
0.00024490221 0.004946074 0.0029711551
0.00034643605 0.0049503082 0.0029686028
0.00044159422 0.004941667 0.0029719942
0.00054516003 0.0049565658 0.00296662
0.00064469938 0.0049487902 0.0029725677
0.00075513666 0.0049547129 0.0029691269
0.00086224917 0.004948793 0.0029676214
0.00095472083 0.0049560224 0.002972103
0.0010464296 0.0049509066 0.0029707029
0.0011615357 0.0049551977 0.0029624063
0.0012638888 0.0049418374 0.0029727248
0.0013615569 0.0049454262 0.0029649842
0.0014528144 0.004952007 0.0029690159
0.0015528589 0.0049465084 0.002971035
0.0016324408 0.0049699009 0.0029408359
0.0017194292 0.0049762535 0.0029254581
0.0041692215 0.0049824505 0.002980571
0.0042600078 0.0049707745 0.0029486553
0.0043550045 0.0049620778 0.0029570616
0.0044553876 0.0049517285 0.0029664121
0.0045550857 0.0049395775 0.0029709155
0.0046496266 0.004950976 0.0029712974
0.0047520227 0.0049544079 0.0029693719
0.0048585408 0.0049422132 0.0029705337
0.0049481792 0.0049444996 0.0029673094
0.0050536916 0.0049443478 0.0029711067
0.0051540402 0.0049516936 0.0029648845
0.0052646208 0.0049488833 0.0029739423
0.0053682425 0.0049679042 0.0029714571
0.0054567554 0.0049488046 0.0029667132
0.00555669 0.0049458398 0.0029731456
0.0056529325 0.0049397675 0.0029718319
0.0057374747 0.0049490463 0.0029708154
0.0058404459 0.0049457154 0.0029683234
0.0059650303 0.0049509644 0.0029550709
0.0060295444 0.0049534403 0.0029488634
-0.00010183406 0.0050799157 0.0029447763
-4.6918602e-05 0.0050552911 0.0029552008
5.1026218e-05 0.0050452938 0.0029691712
0.00014365854 0.0050563281 0.0029685425
0.00024666416 0.005052221 0.0029701237
0.00034306393 0.005045977 0.0029735004
0.00044639441 0.0050462177 0.0029667602
0.00054896559 0.0050538816 0.0029709036
0.00064415514 0.0050550289 0.0029694475
0.00075289898 0.0050510424 0.0029672976
0.00085171487 0.0050556096 0.0029715006
0.00095410238 0.0050521023 0.0029687767
0.001050099 0.0050554038 0.0029683851
0.0011542728 0.0050489162 0.0029698634
0.0012620116 0.0050450079 0.0029736918
0.0013512687 0.0050520962 0.0029695753
0.0014588904 0.0050559295 0.0029705856
0.0015577548 0.0050550681 0.0029677986
0.0016598996 0.0050406009 0.0029595338
0.0017425023 0.0050690677 0.0029522607
0.0018288937 0.005082069 0.0029540842
0.0040848842 0.0050812522 0.0029326668
0.0041529755 0.0050563957 0.0029586011
0.0042488673 0.0050524757 0.0029616461
0.0043534664 0.0050633536 0.0029686624
0.0044576442 0.0050559854 0.0029711411
0.0045546866 0.0050419699 0.0029645835
0.0046502473 0.0050596111 0.0029659781
0.0047627236 0.0050463602 0.0029685048
0.0048573837 0.0050515993 0.0029665194
0.0049558063 0.0050475579 0.0029623332
0.005047386 0.0050480058 0.002971736
0.005155046 0.0050522839 0.0029667821
0.0052446765 0.0050527528 0.0029687493
0.0053571542 0.0050477581 0.0029658866
0.0054612355 0.0050521637 0.0029687395
0.0055593061 0.0050512678 0.0029699949
0.0056573092 0.005048342 0.002965051
0.0057442263 0.0050558606 0.0029698233
0.0058540707 0.0050592879 0.002969357
0.0059624542 0.0050579803 0.0029549417
0.0060387091 0.0050524385 0.0029511035
-0.00010137496 0.0051603257 0.0029745658
-4.674837e-05 0.0051580342 0.0029551811
5.1442861e-05 0.0051460462 0.0029691211
0.00015155955 0.0051498669 0.0029690177
0.00025333033 0.005149038 0.002970465
0.00034559672 0.0051491726 0.0029683304
0.00044010184 0.0051415469 0.0029669348
0.0005424401 0.0051473868 0.0029701705
0.00063754304 0.0051574679 0.002972292
0.00075097661 0.0051479102 0.0029700326
0.00085381663 0.0051570721 0.0029726031
0.00095728581 0.0051428471 0.0029693567
0.0010490915 0.0051456825 0.002970475
0.0011505455 0.0051515982 0.0029690466
0.001254882 0.0051402547 0.002966702
0.0013524414 0.0051447148 0.0029737039
0.0014492264 0.0051498055 0.0029664529
0.0015517506 0.0051442301 0.0029710534
0.001642795 0.0051414678 0.0029684466
0.0017486118 0.0051444378 0.0029676242
0.0018423849 0.0051512299 0.0029597126
0.001922232 0.0051639858 0.002953565
0.0039663613 0.0051758094 0.0029509182
0.0040552411 0.0051495922 0.0029576449
0.004154115 0.0051457006 0.0029565617
0.0042631063 0.0051424336 0.0029680578
0.0043651559 0.0051472182 0.0029672128
0.0044618961 0.0051540723 0.0029695658
0.0045531462 0.0051508201 0.0029602363
0.0046458002 0.0051479149 0.0029733554
0.0047480762 0.0051551443 0.0029695963
0.004851162 0.0051541263 0.0029644668
0.0049522612 0.0051486334 0.0029654882
0.0050497279 0.0051487419 0.0029691726
0.0051545957 0.0051558232 0.0029672782
0.0052405293 0.0051498031 0.0029654407
0.0053462884 0.0051504178 0.0029676026
0.005445017 0.0051495321 0.0029653236
0.0055500544 0.0051510097 0.0029731942
0.0056513553 0.005155223 0.0029604901
0.0057376032 0.0051524653 0.0029762222
0.0058380472 0.0051511424 0.0029670589
0.0059647048 0.0051594279 0.0029532129
0.0060309651 0.005151323 0.0029487479
-0.00010858797 0.0052163741 0.0029318586
-3.4382745e-05 0.0052409032 0.0029520241
5.5062806e-05 0.0052508852 0.0029605818
0.00015195472 0.0052565928 0.0029657043
0.00025821509 0.0052577211 0.0029691879
0.00034683829 0.0052543045 0.002972981
0.00045214323 0.0052437889 0.0029700811
0.00054948736 0.0052521271 0.0029700426
0.00064191938 0.0052518868 0.0029679679
0.00075073499 0.0052486197 0.0029688128
0.00085676229 0.0052563278 0.002968414
0.00095716614 0.0052497662 0.0029697262
0.0010513312 0.0052495957 0.002966627
0.0011601023 0.0052540596 0.0029683306
0.0012634301 0.0052469401 0.0029708885
0.001355726 0.0052496595 0.0029682415
0.0014562136 0.0052540437 0.0029702885
0.0015606339 0.0052431682 0.0029681819
0.0016478249 0.0052516689 0.0029692478
0.0017460656 0.0052521462 0.0029665597
0.0018555982 0.0052558803 0.0029644519
0.001959298 0.0052422727 0.0029618104
0.0020496198 0.0052673686 0.0029513815
0.0021490625 0.0052873744 0.0029492595
0.0022191482 0.0052968897 0.0029456655
0.0036544928 0.0052928557 0.0029024603
0.0037611118 0.0052837427 0.0029510742
0.0038648136 0.0052536037 0.0029552807
0.0039482997 0.0052479054 0.0029568374
0.0040571894 0.0052577239 0.0029729963
0.0041596578 0.0052512856 0.0029739195
0.0042525055 0.005250942 0.0029647239
0.0043532564 0.0052470756 0.0029722711
0.0044608759 0.0052592536 0.0029716108
0.0045582163 0.0052545508 0.0029673306
0.0046488997 0.0052676033 0.0029727251
0.0047415225 0.0052602463 0.0029626086
0.0048373556 0.0052571641 0.002969576
0.0049530198 0.0052551031 0.0029678864
0.0050479155 0.0052548307 0.0029694065
0.0051593352 0.0052630841 0.0029699008
0.0052479836 0.0052526766 0.0029703146
0.0053481506 0.0052586282 0.0029673842
0.0054575568 0.005253783 0.0029705428
0.0055607087 0.0052563576 0.0029657714
0.0056450516 0.0052630655 0.0029685579
0.0057474277 0.005257397 0.0029681488
0.0058522243 0.0052634352 0.0029546591
0.0059433389 0.005251335 0.0029490839
0.0060326317 0.0052257208 0.0029394091
7.1136652e-05 0.0053222771 0.0029525112
0.00015503743 0.0053411648 0.002952754
0.00024904305 0.005360771 0.0029515917
0.00035102354 0.0053515234 0.0029657339
0.00045562664 0.0053486167 0.0029685481
0.00055090716 0.0053434358 0.0029676373
0.00064098777 0.0053548939 0.0029690224
0.00075716263 0.0053468212 0.0029697879
0.0008560039 0.0053530373 0.002970922
0.00095424143 0.0053564422 0.0029668163
0.0010540891 0.0053446805 0.0029708985
0.0011607102 0.0053597572 0.0029682266
0.0012633756 0.0053407308 0.0029677264
0.0013555887 0.0053451108 0.0029675656
0.0014521347 0.0053504054 0.0029714098
0.001551025 0.0053457036 0.0029673632
0.0016438232 0.0053507676 0.0029706915
0.0017526785 0.0053547779 0.0029706997
0.0018542105 0.0053552906 0.0029673183
0.0019511296 0.0053515313 0.0029664675
0.0020473802 0.005348077 0.0029712389
0.0021624474 0.0053430689 0.0029596572
0.0022514053 0.0053581698 0.0029520434
0.0023380599 0.0053799637 0.0029434783
0.0024432917 0.0053931596 0.0029417388
0.0034863646 0.0053786901 0.0029555531
0.0035479113 0.0053751096 0.0029471964
0.0036547908 0.005352376 0.002965098
0.0037470544 0.0053374185 0.0029511352
0.0038536314 0.0053440756 0.0029619648
0.0039533726 0.0053551677 0.0029711158
0.0040554395 0.0053463602 0.0029644079
0.0041645048 0.0053509525 0.0029769763
0.0042562662 0.0053538568 0.0029623671
0.0043564998 0.0053433585 0.00297176
0.0044582156 0.005350674 0.0029718366
0.0045552133 0.0053550657 0.0029664116
0.0046620951 0.00535203 0.0029694294
0.0047586798 0.0053533581 0.0029682086
0.004853012 0.0053467052 0.0029739712
0.0049481844 0.0053519295 0.0029653152
0.0050408333 0.0053542992 0.0029680845
0.005139356 0.0053521851 0.0029667187
0.0052421205 0.0053453632 0.0029703917
0.0053546717 0.005347637 0.0029660792
0.0054549719 0.0053534699 0.0029708913
0.0055450019 0.0053511634 0.0029667409
0.0056558843 0.0053695063 0.0029556772
0.0057514929 0.0053562317 0.0029455754
0.0058305641 0.0053321598 0.0029620638
0.005932963 0.0053079105 0.0029166872
0.00019156819 0.0054035541 0.0029533515
0.00025707905 0.0054225782 0.0029681195
0.00035421757 0.0054454552 0.0029555452
0.00044559003 0.005460172 0.0029586491
0.00054932025 0.0054579973 0.002968041
0.00065070356 0.0054606972 0.0029709409
0.000756483 0.0054507768 0.0029702086
0.00085754693 0.005460328 0.0029708899
0.00095769 0.0054540718 0.0029707295
0.0010524419 0.0054494729 0.0029687318
0.0011619821 0.0054595149 0.0029674894
0.0012639982 0.0054392563 0.0029686145
0.0013633142 0.0054475307 0.0029717842
0.0014511442 0.0054518706 0.0029686333
0.0015567821 0.0054546469 0.0029696971
0.0016477802 0.0054597696 0.0029717153
0.0017443452 0.0054469965 0.0029664987
0.0018568592 0.0054577473 0.0029687784
0.001945349 0.0054549724 0.0029694266
0.0020555784 0.0054442487 0.0029696794
0.0021592346 0.0054515516 0.0029704052
0.0022501908 0.0054544853 0.0029704629
0.0023560124 0.0054438952 0.0029629495
0.0024473914 0.0054390784 0.0029533857
0.0025543983 0.00545811 0.002960894
0.0026589031 0.0054586497 0.0029592065
0.0027554049 0.0054645138 0.0029475968
0.0028577344 0.005480798 0.0029454939
0.0029584554 0.0054842979 0.0029603189
0.0030505664 0.0054775737 0.0029622726
0.0031458719 0.0054719476 0.0029494588
0.0032467621 0.0054537524 0.0029555457
0.0033587816 0.0054474613 0.002958782
0.003464944 0.0054398761 0.0029534078
0.0035536988 0.0054440214 0.0029629711
0.0036536858 0.0054507246 0.0029683767
0.0037525825 0.0054521388 0.0029702759
0.0038525206 0.0054528336 0.0029683523
0.003950852 0.0054543191 0.0029655872
0.0040461016 0.0054587913 0.0029727782
0.0041513941 0.0054439208 0.0029702291
0.004242776 0.005465046 0.0029656205
0.0043432214 0.0054529454 0.0029672384
0.0044454662 0.0054524816 0.0029676086
0.0045480463 0.0054509812 0.0029679255
0.0046526901 0.0054644579 0.002974286
0.004751367 0.0054583424 0.0029624193
0.0048645586 0.0054600732 0.0029713721
0.0049572866 0.005449295 0.0029688114
0.0050530005 0.0054654512 0.002965664
0.0051543107 0.0054502031 0.0029717414
0.0052498803 0.0054538883 0.0029664184
0.005343182 0.0054469942 0.0029728913
0.0054683993 0.005452482 0.0029670789
0.0055543236 0.0054577361 0.0029543743
0.0056451419 0.0054364409 0.0029533678
0.0057548899 0.0054069138 0.0029181067
0.00039713751 0.0055134054 0.0029234013
0.00045233508 0.0055248565 0.0029477787
0.00054775103 0.0055585532 0.0029547773
0.0006418408 0.005560392 0.0029696373
0.0007573996 0.0055518006 0.0029672605
0.00086319743 0.0055605378 0.0029704445
0.00095745758 0.0055503477 0.0029699509
0.0010531791 0.0055467323 0.0029716871
0.0011580144 0.0055512353 0.0029664438
0.0012675085 0.0055397158 0.002971675
0.0013467995 0.0055279667 0.0029678035
0.0014509623 0.0055464222 0.0029724282
0.0015503361 0.0055551371 0.0029693067
0.001642547 0.0055575226 0.0029713435
0.0017508729 0.0055475417 0.0029678294
0.0018496814 0.005549951 0.0029671872
0.0019517201 0.0055477656 0.0029706822
0.0020490766 0.0055445055 0.002972719
0.0021563394 0.0055441861 0.0029657159
0.0022493796 0.0055509368 0.0029724834
0.002346535 0.0055407626 0.0029668624
0.0024608157 0.005548561 0.0029688135
0.0025621061 0.0055478374 0.0029756951
0.0026630375 0.0055473335 0.0029690342
0.0027616322 0.0055491226 0.0029745838
0.0028605871 0.0055481372 0.0029705563
0.0029632892 0.005549334 0.0029662708
0.0030580666 0.0055521312 0.002968614
0.00315734 0.0055342824 0.0029715593
0.0032562341 0.005557768 0.0029704934
0.0033567743 0.0055415588 0.0029705809
0.003450857 0.0055376543 0.0029697015
0.0035674782 0.0055574798 0.0029677346
0.00366884 0.0055490588 0.0029753128
0.0037564575 0.0055537792 0.0029631285
0.0038553216 0.0055468739 0.0029706173
0.0039469227 0.005547734 0.0029689907
0.0040543769 0.0055442979 0.0029708322
0.0041507427 0.0055488329 0.00297577
0.0042499728 0.0055672484 0.0029628738
0.0043423814 0.005548256 0.002970309
0.0044492413 0.0055391267 0.002971452
0.0045459997 0.0055417819 0.0029672917
0.0046424591 0.0055363891 0.0029763163
0.0047473945 0.0055573522 0.0029697206
0.0048456248 0.0055462816 0.0029717211
0.0049573923 0.0055575934 0.0029706338
0.0050475746 0.0055571101 0.0029675358
0.005157928 0.0055562523 0.0029692866
0.0052461703 0.0055563333 0.0029662151
0.0053542815 0.0055547147 0.0029517605
0.0054522674 0.0055357069 0.0029536716
0.0055377316 0.0055131358 0.0029506274
0.00056913472 0.0056076287 0.0029357199
0.00064924511 0.0056325113 0.0029408573
0.00074308523 0.005658186 0.0029571163
0.00084772176 0.0056603737 0.0029666459
0.00095224695 0.0056446274 0.0029685446
0.0010527959 0.0056565078 0.0029683984
0.0011620893 0.0056455117 0.0029692573
0.0012637128 0.0056427279 0.0029647704
0.0013462236 0.0056415447 0.0029710736
0.0014444411 0.00564348 0.0029698492
0.0015593849 0.0056573148 0.0029696957
0.0016521779 0.005647108 0.002968586
0.0017447782 0.0056439289 0.0029669462
0.0018511231 0.0056532673 0.0029681972
0.0019464506 0.0056490828 0.0029731477
0.0020497369 0.0056447219 0.0029680482
0.0021617664 0.0056510009 0.0029699034
0.002243533 0.0056540412 0.00296438
0.0023453739 0.0056363456 0.0029675681
0.0024488759 0.0056415787 0.0029710368
0.0025522891 0.0056514763 0.002970052
0.002658088 0.0056548081 0.0029677777
0.0027560601 0.0056521739 0.0029766492
0.0028555999 0.0056532244 0.0029670699
0.0029616514 0.0056515597 0.00296544
0.0030548465 0.005649928 0.0029696703
0.0031592736 0.0056437855 0.0029736133
0.0032458398 0.0056554726 0.0029669139
0.0033523953 0.0056363633 0.0029689865
0.003450898 0.0056417752 0.0029689679
0.0035539696 0.0056519005 0.0029687202
0.0036628896 0.0056538698 0.0029720308
0.0037592188 0.0056520007 0.0029664845
0.0038511013 0.0056426935 0.0029657683
0.0039476687 0.0056505729 0.0029650505
0.0040479139 0.0056476402 0.0029654382
0.004161654 0.0056482311 0.0029648063
0.0042575072 0.0056513795 0.0029664764
0.0043539987 0.0056525716 0.0029748688
0.0044462248 0.0056370329 0.0029643215
0.0045508523 0.0056458823 0.0029696377
0.0046487362 0.005630001 0.0029650691
0.0047556199 0.0056566051 0.0029668058
0.0048585092 0.0056485985 0.002965634
0.0049592676 0.0056461208 0.0029659257
0.005038281 0.0056536393 0.0029667763
0.0051543694 0.0056716762 0.0029578744
0.0052471329 0.0056480169 0.002950934
0.0053288564 0.0056248442 0.002936274
0.0054060058 0.0056193736 0.0029134743
0.00077589852 0.0057141823 0.0029507859
0.00085569778 0.0057375412 0.0029487442
0.0009466933 0.0057607591 0.0029603844
0.0010395591 0.005751037 0.0029611627
0.0011491798 0.0057398346 0.0029634275
0.0012481764 0.0057376595 0.0029676189
0.0013382623 0.0057344725 0.0029651623
0.0014505185 0.0057520499 0.0029679413
0.0015574474 0.0057367282 0.0029651164
0.0016436132 0.0057504387 0.0029661346
0.0017505353 0.0057374989 0.002966502
0.0018539943 0.0057504494 0.0029630186
0.0019529411 0.005747614 0.0029677171
0.0020516454 0.0057403082 0.0029656256
0.0021494462 0.0057477881 0.0029663639
0.0022450346 0.0057480568 0.0029648468
0.0023447429 0.0057356018 0.0029653206
0.0024600415 0.0057409927 0.0029723563
0.0025572744 0.0057488242 0.0029696019
0.0026583299 0.0057459413 0.0029677132
0.0027549081 0.0057527972 0.0029661432
0.0028585866 0.0057385513 0.0029683663
0.0029594093 0.0057499311 0.0029639846
0.0030679279 0.0057467618 0.0029704494
0.0031619284 0.0057453271 0.0029708396
0.0032514313 0.0057475506 0.0029655821
0.0033517843 0.0057442444 0.0029652638
0.0034525667 0.0057324604 0.0029622088
0.003557551 0.0057485024 0.0029646086
0.0036600118 0.0057516103 0.0029651814
0.0037619695 0.0057394914 0.0029642065
0.003856367 0.0057447446 0.0029689185
0.003940146 0.0057488978 0.0029664952
0.0040449835 0.0057423525 0.0029662424
0.0041518202 0.0057412474 0.0029636354
0.0042494545 0.0057392106 0.0029700461
0.0043592518 0.0057325028 0.0029596074
0.0044445307 0.0057432991 0.0029674941
0.0045464658 0.0057443511 0.002970699
0.0046371454 0.0057384078 0.0029620621
0.0047549848 0.0057387305 0.0029690485
0.0048636389 0.0057568131 0.0029649609
0.0049723145 0.0057587754 0.0029668431
0.0050513316 0.0057504098 0.0029568048
0.0051421747 0.005735476 0.0029474392
0.0052359006 0.005711413 0.0029316167
0.00096171594 0.0058249016 0.0029470553
0.001047436 0.0058500073 0.0029493221
0.0011457503 0.0058569098 0.0029581438
0.0012440113 0.0058381096 0.0029685583
0.0013438417 0.0058446284 0.0029687982
0.001448756 0.0058513298 0.0029690629
0.0015516164 0.0058403281 0.0029666338
0.0016438423 0.0058518313 0.0029734564
0.0017505023 0.0058503454 0.002967386
0.0018538811 0.0058509302 0.0029682165
0.0019535962 0.0058516716 0.0029676356
0.0020510603 0.0058446149 0.0029723265
0.002160978 0.0058374717 0.0029671208
0.0022508211 0.0058445944 0.0029681816
0.0023442111 0.0058378307 0.0029712392
0.0024515598 0.005845489 0.0029703015
0.0025535228 0.0058474028 0.0029750378
0.0026534521 0.0058463099 0.0029656312
0.0027666879 0.0058406643 0.0029749214
0.0028592234 0.0058383467 0.0029688138
0.002957307 0.0058484594 0.0029638347
0.0030680355 0.0058464352 0.0029736434
0.0031628513 0.0058487919 0.002966322
0.0032489169 0.0058502536 0.0029706573
0.0033472697 0.005843455 0.0029654547
0.0034520389 0.005837671 0.0029708156
0.0035529821 0.0058394768 0.0029648289
0.0036641748 0.0058475472 0.0029686391
0.0037585008 0.005843116 0.0029684359
0.0038535078 0.0058462485 0.0029653714
0.0039412999 0.0058565796 0.0029687469
0.0040455852 0.0058521074 0.0029672442
0.0041475059 0.0058467947 0.0029689849
0.0042522112 0.0058446843 0.002965657
0.0043474915 0.0058371872 0.002973289
0.0044398438 0.0058407141 0.0029674496
0.0045506493 0.0058386358 0.0029708187
0.0046452102 0.0058411043 0.0029682328
0.0047499882 0.0058448249 0.0029686175
0.0048541101 0.0058647357 0.0029545634
0.0049442677 0.005832341 0.0029477894
0.0050260876 0.0058131693 0.0029512045
0.0010783519 0.0059103733 0.0029604465
0.0011666543 0.005932821 0.0029584581
0.0012488595 0.0059536947 0.0029519375
0.0013407943 0.0059592072 0.0029660033
0.0014356907 0.0059451209 0.0029656817
0.0015450106 0.0059434008 0.0029695935
0.0016432351 0.0059516476 0.0029718168
0.0017507228 0.0059515582 0.0029694575
0.0018582462 0.0059532919 0.0029674738
0.0019592755 0.0059498642 0.0029750844
0.0020503982 0.0059482921 0.0029691008
0.002150981 0.0059364615 0.002969977
0.0022476094 0.0059405076 0.0029719882
0.0023435063 0.0059364722 0.0029679171
0.0024575004 0.0059418371 0.0029700873
0.0025532029 0.005952897 0.0029695032
0.0026655863 0.0059483009 0.0029661097
0.0027561414 0.0059350887 0.0029719267
0.0028580104 0.0059420126 0.0029719032
0.0029577322 0.0059516113 0.0029690119
0.0030573856 0.0059465789 0.0029746846
0.0031633498 0.0059420359 0.002967706
0.0032561992 0.0059598503 0.0029719418
0.003349785 0.005943927 0.0029680987
0.0034456477 0.0059484481 0.002967946
0.0035523009 0.0059381323 0.002969515
0.0036610153 0.0059442185 0.0029654016
0.0037632026 0.0059470902 0.0029749156
0.0038508764 0.0059430432 0.0029680249
0.00394458 0.0059471461 0.0029758539
0.0040437849 0.0059528141 0.0029671788
0.0041496949 0.00594508 0.0029677828
0.0042459574 0.0059450716 0.0029749668
0.0043415963 0.0059502875 0.0029681022
0.0044390806 0.0059438534 0.0029666186
0.0045573749 0.005944001 0.0029673767
0.0046550636 0.0059631518 0.0029541599
0.0047474182 0.0059416769 0.0029526672
0.004840319 0.0059214355 0.0029488606
0.0049032755 0.0059091575 0.0029715043
0.0012732241 0.0060110488 0.0029434084
0.0013556704 0.0060355086 0.0029460753
0.0014416956 0.0060509536 0.0029607383
0.0015456568 0.0060485206 0.0029685593
0.0016426323 0.0060521653 0.0029732944
0.0017496167 0.0060413359 0.002966634
0.0018545879 0.0060479208 0.0029668654
0.0019544798 0.0060388758 0.0029729414
0.0020519821 0.0060534645 0.0029685504
0.0021471828 0.006041619 0.0029685693
0.0022510404 0.0060452996 0.0029657059
0.0023459301 0.0060400432 0.002972659
0.0024541935 0.0060436716 0.0029678845
0.0025487239 0.006044345 0.002973865
0.0026521576 0.0060397442 0.0029672794
0.0027544994 0.0060528954 0.0029690717
0.0028621869 0.0060443077 0.0029711614
0.0029575769 0.0060522528 0.0029670615
0.0030610829 0.0060501131 0.0029729591
0.0031613759 0.0060502635 0.0029720829
0.0032551601 0.0060419748 0.002966661
0.0033508469 0.0060325521 0.0029739209
0.003452634 0.0060487734 0.002970377
0.0035508028 0.006036839 0.0029669348
0.003652133 0.0060443664 0.002969298
0.0037604566 0.0060521704 0.0029674517
0.0038551455 0.0060492391 0.0029673392
0.0039495556 0.0060342466 0.0029652601
0.0040464234 0.0060539576 0.0029757745
0.0041465117 0.0060462067 0.0029692
0.0042489306 0.0060401512 0.0029651006
0.0043540136 0.0060514347 0.0029708769
0.004450473 0.0060528712 0.0029642717
0.0045451196 0.0060450193 0.002955873
0.004648014 0.006021535 0.0029555615
0.0014642298 0.0061205882 0.0029450101
0.0015531026 0.0061412021 0.0029479314
0.0016392955 0.0061596683 0.0029665662
0.0017531908 0.0061473693 0.0029671944
0.0018527444 0.0061467532 0.0029702941
0.0019479789 0.0061466792 0.0029737088
0.002056465 0.006149529 0.0029692762
0.0021622654 0.0061507174 0.0029721789
0.0022451249 0.0061423229 0.0029696464
0.002347772 0.0061469041 0.0029687544
0.0024565328 0.00613723 0.00296561
0.0025622053 0.0061425767 0.0029729391
0.0026525315 0.0061378847 0.0029690997
0.0027561462 0.0061454251 0.0029764534
0.0028567903 0.006150248 0.0029702527
0.0029590693 0.0061416975 0.002969414
0.0030574431 0.0061517628 0.0029738345
0.0031541721 0.0061485153 0.0029670675
0.0032588688 0.0061449688 0.0029703006
0.0033382098 0.006126144 0.0029679239
0.0034481443 0.0061393478 0.002968383
0.0035389327 0.006142959 0.0029668433
0.0036534225 0.0061479337 0.002968502
0.003755043 0.0061564664 0.0029667413
0.0038489711 0.0061462759 0.0029683881
0.0039488547 0.006149353 0.0029694729
0.0040493147 0.0061458973 0.0029636845
0.0041531837 0.0061524403 0.0029721842
0.004267836 0.0061580804 0.0029581576
0.0043546348 0.0061600395 0.0029483347
0.0044473419 0.006124197 0.0029486089
0.0045267334 0.0061104144 0.0029381143
0.0016578032 0.0062261592 0.0029537505
0.0017527937 0.0062518073 0.0029554591
0.0018486122 0.0062542781 0.0029659711
0.0019517106 0.0062526646 0.0029690035
0.0020492601 0.0062475 0.00296997
0.002155863 0.0062501109 0.0029713041
0.0022491468 0.0062399525 0.0029690554
0.0023438879 0.0062415027 0.0029688398
0.0024604339 0.0062323553 0.0029704873
0.0025574178 0.0062378598 0.0029719949
0.0026494442 0.006236292 0.0029649925
0.0027519751 0.0062431139 0.0029716101
0.0028575514 0.006244034 0.0029718899
0.0029502474 0.0062439307 0.002968546
0.0030555634 0.0062453216 0.0029721926
0.0031522873 0.0062430045 0.0029710364
0.0032626993 0.006234461 0.0029678959
0.0033492222 0.0062315552 0.0029663525
0.0034509066 0.0062351832 0.0029674636
0.0035481188 0.0062444028 0.0029722494
0.0036492348 0.0062494846 0.0029673502
0.0037553422 0.0062499032 0.0029748804
0.0038471727 0.0062530925 0.0029653437
0.0039439984 0.0062478115 0.0029734394
0.0040555103 0.0062471479 0.0029593648
0.0041596382 0.0062608276 0.0029599571
0.0042385133 0.0062420489 0.0029564693
0.0043296302 0.0062194834 0.0029420783
0.0017768514 0.006309689 0.0029297473
0.0018669955 0.0063372692 0.0029499212
0.0019563308 0.0063566882 0.0029599424
0.0020513625 0.0063695535 0.0029647045
0.0021613485 0.0063500782 0.0029734771
0.0022510679 0.0063378126 0.0029682377
0.0023536691 0.0063438695 0.0029705665
0.0024545169 0.006338058 0.0029665248
0.0025530937 0.0063464902 0.002971587
0.002648216 0.0063426844 0.0029679448
0.0027517034 0.0063505755 0.0029716233
0.0028527675 0.0063455929 0.0029704147
0.00294776 0.0063637062 0.0029691805
0.0030485259 0.0063450467 0.002971943
0.0031545137 0.0063512926 0.0029665232
0.0032621948 0.0063415961 0.0029717302
0.0033616696 0.0063411277 0.0029794541
0.003449111 0.0063487766 0.0029666277
0.0035502026 0.0063403244 0.0029767314
0.0036446634 0.0063428967 0.0029687097
0.0037504153 0.0063553937 0.0029700706
0.003854665 0.006361838 0.002970332
0.0039584106 0.0063614198 0.0029632496
0.0040506138 0.0063398532 0.0029496313
0.0041430346 0.006314782 0.0029393854
0.0042153811 0.0063014571 0.0029344824
0.0019716495 0.0064139883 0.002952307
0.002052472 0.006441392 0.0029499277
0.0021482597 0.0064595672 0.0029567392
0.0022457237 0.0064397068 0.0029679558
0.0023465538 0.0064517087 0.0029683695
0.0024462161 0.006446349 0.0029704396
0.0025565252 0.0064420053 0.002970183
0.0026448795 0.0064488789 0.0029698957
0.0027522682 0.0064493646 0.0029705586
0.0028552469 0.0064489213 0.0029724585
0.0029479282 0.0064437678 0.002968187
0.0030527744 0.0064531337 0.0029731139
0.0031453643 0.0064410158 0.0029707965
0.00326071 0.0064452128 0.0029684701
0.0033630084 0.0064495937 0.0029743898
0.003453997 0.0064428672 0.0029686934
0.0035581985 0.0064333999 0.0029718815
0.0036515975 0.0064438325 0.00296916
0.0037535252 0.0064639007 0.0029613923
0.0038480391 0.0064490666 0.0029562362
0.0039370828 0.0064279274 0.0029414154
0.0040197116 0.006401231 0.0029034703
0.0021615073 0.0065120738 0.002949171
0.0022503824 0.0065421327 0.0029472741
0.0023488372 0.0065545915 0.0029660384
0.0024527106 0.006549017 0.0029682803
0.0025559559 0.006544156 0.0029719486
0.0026445324 0.0065489435 0.0029713814
0.0027484195 0.0065494739 0.0029677185
0.0028556273 0.00655019 0.0029707453
0.0029530502 0.0065298532 0.0029712687
0.0030502782 0.0065410505 0.0029720934
0.003148512 0.0065447967 0.0029708801
0.0032601871 0.0065426789 0.0029704503
0.0033596649 0.0065397266 0.0029749956
0.0034502894 0.0065400093 0.0029654577
0.0035563328 0.0065519009 0.0029668442
0.0036476988 0.0065550101 0.0029591837
0.0037478926 0.0065242886 0.0029542372
0.0038232941 0.0065184268 0.0029403244
0.0022797256 0.0066031939 0.0029678592
0.002356739 0.0066263829 0.0029473072
0.0024507153 0.0066530802 0.0029533599
0.002548404 0.0066582081 0.0029635988
0.0026480032 0.0066492236 0.0029685528
0.0027457965 0.0066527482 0.0029693977
0.0028544446 0.0066343043 0.0029702112
0.0029498998 0.006635291 0.0029684692
0.0030527208 0.0066363229 0.0029739344
0.0031495243 0.0066522681 0.0029703872
0.0032580793 0.0066413255 0.0029721579
0.0033614817 0.006654196 0.0029720683
0.003453423 0.0066562407 0.0029505161
0.0035461276 0.0066390382 0.0029508448
0.0036303499 0.0066193938 0.0029428303
0.0024755946 0.0067115873 0.0029552411
0.0025585871 0.0067386329 0.0029515082
0.0026384662 0.006757861 0.0029489496
0.0027400383 0.006746307 0.0029621159
0.0028556958 0.0067393775 0.0029708229
0.0029491386 0.0067362846 0.0029701297
0.0030527946 0.0067357332 0.0029711076
0.0031481937 0.0067377542 0.0029700296
0.0032520262 0.0067622382 0.0029596388
0.0033488811 0.0067448216 0.0029475449
0.0034375433 0.0067203045 0.0029496355
0.0035126507 0.0067076134 0.0029423831
0.0026801762 0.0068167192 0.0029460411
0.002754051 0.0068368884 0.0029608847
0.0028492399 0.0068590418 0.0029559683
0.0029476185 0.0068399175 0.0029656964
0.003057847 0.0068530394 0.0029645883
0.0031478682 0.0068489308 0.0029537363
0.0032406356 0.0068329731 0.0029539643
0.0033202164 0.0068182661 0.0029421833
0.0027933039 0.0069050551 0.0029599601
0.0028627038 0.0069218669 0.0029467316
0.0029525238 0.006939908 0.0029540169
0.0030485103 0.0069270572 0.0029429882
0.0031223195 0.0069195936 0.0029557438
0.0029636461 -4.3034324e-05 0.0030195224
0.0030257986 -1.2536618e-05 0.0030253343
0.002760018 8.4174171e-05 0.0030204246
0.0028644453 5.8229125e-05 0.0030293989
0.0029451358 4.501787e-05 0.0030278929
0.0030518065 5.3733445e-05 0.0030307826
0.0031389 6.83158e-05 0.0030245965
0.0032265785 8.9941903e-05 0.0030235799
0.0025556241 0.00018563142 0.0030067607
0.002663251 0.00016187342 0.0030254603
0.0027632783 0.00015364506 0.0030274356
0.002860626 0.00014645139 0.0030281614
0.0029506043 0.00014411561 0.0030297018
0.0030537373 0.00014590388 0.0030290887
0.003137049 0.00015429444 0.0030294142
0.0032447069 0.000155584 0.0030286023
0.0033400694 0.00017610031 0.0030225145
0.0034160616 0.00018383159 0.0030145883
0.0023497732 0.00027960539 0.0030260165
0.0024586958 0.00026341103 0.0030198256
0.0025562672 0.00025128914 0.0030305025
0.0026426814 0.00024376179 0.0030237064
0.002760815 0.00025171856 0.0030328347
0.0028516832 0.00024772837 0.0030277981
0.0029498562 0.00024849523 0.0030311414
0.0030547881 0.00025529397 0.0030318212
0.0031416698 0.00024512055 0.0030297248
0.0032378272 0.00025240591 0.003034024
0.0033439838 0.00025297707 0.0030246717
0.0034361552 0.00025655946 0.0030345044
0.0035500026 0.00028489056 0.0030265856
0.0021749828 0.00039192621 0.0030357449
0.0022809294 0.00036971801 0.0030315663
0.0023585174 0.0003526221 0.0030269846
0.0024544098 0.0003511174 0.0030318452
0.0025472352 0.00035788494 0.0030304433
0.0026476905 0.0003496359 0.0030301777
0.0027533229 0.00034836656 0.0030289337
0.0028606991 0.00035154424 0.0030325665
0.0029645464 0.0003552422 0.0030316939
0.0030504044 0.00034854011 0.0030262212
0.0031360555 0.00034878062 0.0030322408
0.0032401497 0.00035913929 0.0030309365
0.0033388922 0.00036458191 0.003030702
0.0034489385 0.00034807154 0.0030267132
0.0035486803 0.0003603283 0.0030330874
0.0036386622 0.00035353593 0.0030185201
0.0037190586 0.00038150456 0.0030220724
0.0020680737 0.00047832952 0.0030178106
0.0021513388 0.00046733729 0.0030278964
0.002250399 0.00044824506 0.0030305611
0.002357604 0.00045006993 0.00302443
0.0024501137 0.00045480643 0.0030282449
0.002541115 0.00045423987 0.0030294906
0.0026436294 0.00045072738 0.0030295372
0.0027542892 0.00045496156 0.0030248838
0.0028527088 0.00045681579 0.0030334634
0.0029539065 0.0004536355 0.0030299365
0.003054291 0.00044667345 0.0030313339
0.003140318 0.00043992765 0.0030317039
0.0032443246 0.00045397234 0.0030260591
0.0033426674 0.00045740325 0.0030329351
0.0034477739 0.00044824457 0.0030275383
0.0035501472 0.00045520993 0.0030302319
0.0036522625 0.00045289996 0.0030278277
0.0037462085 0.00045986511 0.0030278885
0.0038542012 0.00047461424 0.0030259714
0.0019562712 0.00056742731 0.0030352729
0.0020451876 0.0005528293 0.0030286973
0.0021349234 0.00054614159 0.0030302252
0.0022531301 0.00055294047 0.003027196
0.0023570424 0.00055575452 0.003028315
0.0024568401 0.00055388373 0.0030289616
0.0025375229 0.00054867822 0.0030343009
0.0026456232 0.00055432192 0.0030274992
0.0027476009 0.00055319752 0.0030337111
0.002848889 0.00055036024 0.0030332527
0.0029545957 0.00055135391 0.0030298652
0.0030515683 0.00053706736 0.0030285644
0.0031435494 0.00054458185 0.0030299008
0.0032397548 0.00054767838 0.0030304689
0.0033414706 0.00055271684 0.0030305008
0.0034428642 0.00055064057 0.0030309474
0.0035459956 0.00055421301 0.0030317437
0.0036514122 0.00055239233 0.0030342094
0.0037554624 0.00056118314 0.0030269024
0.0038493145 0.00055840111 0.0030301691
0.0039433078 0.00054953858 0.0030270675
0.0040371181 0.00057551911 0.0030301143
0.0041329446 0.00059753819 0.0030407547
0.0016917759 0.00069980073 0.0030073028
0.0017298105 0.00067530666 0.0030247997
0.0018644154 0.00064739288 0.0030339693
0.0019455728 0.00063668308 0.0030229834
0.0020586005 0.00065338321 0.0030319828
0.0021422205 0.00065213989 0.0030255751
0.0022535466 0.00065280718 0.0030303237
0.0023624743 0.00065385067 0.0030285076
0.0024542522 0.0006560164 0.0030329805
0.0025456366 0.00065187307 0.0030260351
0.0026467245 0.00064721308 0.0030262151
0.0027591083 0.00066136569 0.0030319381
0.0028499749 0.00064571132 0.0030302084
0.0029557967 0.00064708549 0.0030302117
0.0030491399 0.00064113986 0.0030295055
0.0031501027 0.00065270561 0.0030334741
0.0032555368 0.00063810765 0.0030309176
0.0033397893 0.00065460254 0.0030282622
0.0034457583 0.00065217528 0.0030313288
0.0035425059 0.00066193775 0.0030305528
0.0036519216 0.00065410684 0.0030275944
0.0037510267 0.00066289143 0.0030338506
0.0038461904 0.00065981748 0.0030301204
0.0039437357 0.00064876222 0.0030300312
0.0040377551 0.00064463192 0.0030269756
0.0041476553 0.00066113117 0.0030318825
0.0042183292 0.00067393738 0.0030340992
0.0014750154 0.00078338385 0.0030030282
0.0015638756 0.00077820005 0.0030155375
0.0016664664 0.0007491773 0.0030307057
0.001749216 0.00074027694 0.0030311756
0.0018592306 0.00073979079 0.0030312454
0.0019552361 0.00074048113 0.0030329996
0.0020448531 0.00074080523 0.0030234158
0.0021437339 0.00075562584 0.0030274121
0.0022589017 0.00074684562 0.0030290745
0.0023544135 0.00075337826 0.0030265525
0.0024479399 0.00074986421 0.0030311209
0.0025474927 0.00075685605 0.0030277618
0.002644696 0.00074482284 0.0030336489
0.0027558969 0.00075333467 0.0030310696
0.0028548117 0.00075264345 0.0030310643
0.0029540928 0.00074570318 0.0030286703
0.0030480884 0.00074885396 0.0030317139
0.003152489 0.0007462792 0.0030340604
0.003257832 0.00074579043 0.0030292997
0.0033417202 0.00074777065 0.0030351626
0.0034445983 0.00075705984 0.0030277637
0.003540908 0.00075898971 0.0030348168
0.0036507447 0.00075671164 0.0030303821
0.0037475009 0.00076278101 0.0030302799
0.0038494549 0.00074734556 0.0030316745
0.0039477907 0.00074966968 0.0030298373
0.0040525789 0.00073517655 0.003028299
0.0041529043 0.00074993708 0.0030319276
0.0042537362 0.00074355095 0.0030273297
0.0043394272 0.00076076534 0.0030194621
0.0044092527 0.00077908288 0.0030291458
0.001358052 0.00087311055 0.0030274303
0.001458851 0.0008624433 0.0030293143
0.001560509 0.0008566748 0.0030240139
0.0016565999 0.00084005354 0.0030315414
0.0017458554 0.00085132726 0.0030332196
0.0018490491 0.00084802334 0.0030299528
0.0019533816 0.00085078954 0.0030355672
0.0020506568 0.00084675773 0.0030308086
0.0021510858 0.00086208299 0.0030337076
0.0022565427 0.00085178111 0.0030340389
0.0023561853 0.00085886725 0.0030305395
0.0024489071 0.00085340324 0.00303081
0.0025425926 0.00085770182 0.0030346927
0.0026434334 0.00085413945 0.003033916
0.0027508659 0.00085551396 0.0030344424
0.0028546772 0.0008631277 0.0030331293
0.0029581257 0.00084585027 0.0030359707
0.0030639209 0.00085932907 0.0030338424
0.0031473287 0.00085108954 0.0030326061
0.0032563126 0.00085947046 0.003035767
0.0033444194 0.00085661816 0.0030329388
0.003443396 0.00085576269 0.0030337775
0.0035429311 0.0008633699 0.0030311004
0.0036482548 0.00086302194 0.0030339009
0.0037491899 0.00086168741 0.0030345512
0.0038491569 0.00085165631 0.003030075
0.0039464319 0.0008549068 0.0030297057
0.0040503782 0.00084227405 0.003032936
0.0041531408 0.0008546192 0.003033635
0.0042575779 0.0008486213 0.0030249967
0.0043524839 0.00085136387 0.0030344473
0.0044556553 0.00085069548 0.0030284745
0.0045367042 0.00087100093 0.0030323679
0.0046074218 0.00088671641 0.0030043009
0.0011650415 0.00096189976 0.0030266854
0.0012629342 0.00095611095 0.0030248871
0.0013427481 0.00095033407 0.0030189732
0.0014498139 0.00095202919 0.0030341374
0.0015606127 0.00094896328 0.0030246391
0.0016645648 0.0009500045 0.0030336576
0.0017414986 0.00094345515 0.0030238903
0.0018470655 0.00094334339 0.0030329062
0.0019495568 0.00094996562 0.0030300564
0.0020537365 0.00095595868 0.0030260668
0.0021485107 0.00094717677 0.0030270561
0.0022535254 0.00095053401 0.0030286638
0.0023606247 0.00095306843 0.0030282252
0.0024460242 0.00094920309 0.0030347991
0.0025479633 0.0009538185 0.0030240065
0.0026427882 0.00095881708 0.0030334855
0.0027525534 0.00095137587 0.0030301372
0.002849258 0.0009523785 0.0030250787
0.0029588682 0.00094083208 0.0030302543
0.0030606689 0.00094802678 0.0030297332
0.003150505 0.00094924466 0.0030283604
0.0032588369 0.00096056773 0.0030332853
0.0033440944 0.00095109938 0.0030282044
0.0034461876 0.00095391338 0.0030293923
0.0035432731 0.00095516403 0.0030297399
0.003647923 0.00095272099 0.0030317951
0.003744008 0.00094396761 0.003027716
0.0038447843 0.000948217 0.0030292459
0.0039394391 0.00095021958 0.0030311898
0.0040470003 0.00094775547 0.0030272682
0.0041501899 0.0009503889 0.0030322724
0.0042531323 0.00095452997 0.0030249071
0.0043522259 0.00095173583 0.0030338243
0.0044566826 0.00095580594 0.00302722
0.0045611733 0.00095769146 0.0030320976
0.0046504317 0.00095781649 0.0030224312
0.0047290996 0.00096936291 0.0030327479
0.00095670158 0.001085107 0.0030227555
0.001060602 0.0010602815 0.0030333749
0.0011479309 0.0010598903 0.0030321116
0.0012418535 0.0010473129 0.0030258517
0.001331605 0.0010448081 0.0030274182
0.0014454615 0.0010514554 0.0030333521
0.0015548854 0.0010426266 0.003024485
0.0016554135 0.0010538971 0.0030305926
0.0017464355 0.0010527814 0.0030307991
0.0018512183 0.001047826 0.0030315509
0.0019451688 0.001053332 0.0030264158
0.0020496431 0.0010466557 0.0030335924
0.0021511004 0.0010579824 0.003025414
0.0022513366 0.0010503429 0.0030350161
0.0023625898 0.0010549686 0.0030276163
0.0024545777 0.0010481891 0.003033736
0.0025537303 0.0010583589 0.0030254794
0.0026414378 0.0010645667 0.0030285679
0.0027483343 0.0010418678 0.0030331314
0.0028491183 0.0010462498 0.0030325463
0.0029542064 0.0010397882 0.0030309609
0.0030586985 0.001055127 0.0030305416
0.0031561274 0.0010451247 0.0030294324
0.003260168 0.0010680576 0.0030335556
0.003355002 0.0010460984 0.003028716
0.0034514512 0.0010530878 0.0030342611
0.0035409096 0.0010550559 0.0030319067
0.0036464024 0.0010446152 0.0030304475
0.0037423302 0.0010556916 0.0030308003
0.0038442814 0.0010398412 0.0030295029
0.0039451146 0.0010583601 0.0030312149
0.0040514725 0.001048866 0.0030281397
0.0041517261 0.0010540661 0.0030314983
0.0042462898 0.0010561896 0.003026349
0.0043395134 0.0010533272 0.0030307001
0.0044502611 0.0010573349 0.0030286761
0.0045557455 0.0010500875 0.0030283097
0.0046483679 0.0010591168 0.0030281423
0.0047490173 0.0010477277 0.003029807
0.0048428746 0.0010559475 0.0030237664
0.0049219718 0.0010848122 0.0030362364
0.00089216046 0.0011814623 0.0030263558
0.00096229097 0.0011542455 0.0030260489
0.0010395618 0.0011540344 0.0030331337
0.0011329611 0.0011660574 0.0030290515
0.0012496253 0.0011577735 0.0030282016
0.0013445765 0.001146257 0.0030344012
0.0014468326 0.0011487611 0.0030221697
0.0015541132 0.001154916 0.0030331153
0.0016514664 0.001152965 0.0030264615
0.0017413127 0.0011519954 0.0030273825
0.0018509782 0.001142156 0.0030273262
0.0019577804 0.0011480311 0.0030279586
0.0020489113 0.0011527805 0.0030298608
0.0021534243 0.0011548605 0.0030257872
0.0022507324 0.0011543697 0.0030300396
0.0023539679 0.0011526945 0.0030284629
0.0024586192 0.0011548898 0.0030314969
0.0025580283 0.0011576839 0.0030312678
0.0026560754 0.0011540487 0.0030290186
0.002747701 0.0011428656 0.0030330571
0.002848804 0.0011352295 0.0030259015
0.0029573827 0.0011520869 0.0030318268
0.0030568293 0.0011473289 0.0030333486
0.0031518899 0.0011536326 0.0030332732
0.0032572097 0.0011522446 0.0030332992
0.0033501009 0.0011610404 0.0030294536
0.0034445121 0.001151589 0.0030312894
0.0035475488 0.0011483721 0.0030297481
0.0036459826 0.0011532516 0.0030269858
0.0037475126 0.0011512482 0.0030290696
0.0038490463 0.0011496462 0.0030310086
0.0039466391 0.0011600889 0.003027715
0.0040512718 0.0011464966 0.0030290771
0.0041450807 0.0011529498 0.003031563
0.0042488435 0.0011572479 0.0030274554
