# .PCD v0.7 - Point Cloud Data file format
VERSION 0.7
FIELDS x y z
SIZE 4 4 4
TYPE F F F
COUNT 1 1 1
WIDTH 1236
HEIGHT 1
VIEWPOINT 0 0 0 1 0 0 0
POINTS 1236
DATA ascii
0.018821662 -0.055732798 0.0047061206
0.021288231 -0.054946519 0.0047661453
0.022678955 -0.055053953 0.004981319
-0.022489171 -0.052952636 0.0050025163
-0.021292547 -0.052911967 0.0051455158
-0.016009856 -0.052299496 0.0053077117
-0.015270573 -0.052895654 0.0051084538
0.015139819 -0.052938446 0.0049868645
0.021163553 -0.053001978 0.0050606304
0.022655772 -0.053003106 0.0049825893
-0.022467515 -0.051010553 0.005018597
-0.021028697 -0.051360063 0.005174451
-0.019026933 -0.05094691 0.0050683115
-0.016914319 -0.051138114 0.0050793011
-0.015731797 -0.051631581 0.0052610459
0.01551859 -0.051550038 0.0050099241
0.016999025 -0.050969474 0.0051586856
0.019018594 -0.051055536 0.0051580262
0.021138826 -0.051289909 0.0051234541
0.022693301 -0.050989594 0.0049714413
-0.022481458 -0.049017336 0.0050221276
-0.021895207 -0.049310427 0.0049646231
0.021798329 -0.049097952 0.004872709
0.022648545 -0.049024463 0.00497489
-0.022483014 -0.047010209 0.0052145682
-0.021052936 -0.047149774 0.0048711221
-0.019040467 -0.047184467 0.0048274188
-0.017075492 -0.047082499 0.0048361253
-0.015751699 -0.047028601 0.0044977372
-0.0081362193 -0.047043636 0.0046330206
-0.0070717623 -0.047113292 0.0049255947
-0.0050560301 -0.047155596 0.0050025987
-0.00303635 -0.047236137 0.0049216268
-0.00094579294 -0.04716887 0.0049397526
0.0010465431 -0.047130812 0.0049447473
0.0030144039 -0.047194142 0.0048904382
0.0049854247 -0.047206443 0.0049467124
0.0069987159 -0.0471889 0.0048646652
0.0087615736 -0.047016721 0.0047043534
0.017205413 -0.047030624 0.004853514
0.018975506 -0.047259308 0.0049505765
0.021066369 -0.047216225 0.0049577393
0.022552524 -0.047106907 0.0052051102
-0.022471964 -0.044933006 0.0052350829
-0.02113606 -0.044962082 0.0049984888
-0.019043278 -0.044984952 0.0049773613
-0.017024418 -0.044870764 0.0049706437
-0.014987454 -0.045044389 0.0049490933
-0.013063445 -0.045030229 0.0049417312
-0.011013441 -0.045066752 0.004949552
-0.0089804726 -0.045065973 0.0049303076
-0.0070479978 -0.045023251 0.0050143981
-0.0050286208 -0.044974089 0.0050464482
-0.003000848 -0.044952545 0.0050123557
-0.00099616847 -0.044953588 0.005034233
0.0010378908 -0.044889692 0.0050560175
0.0030170106 -0.044952206 0.004999286
0.0050014495 -0.045020554 0.0050723501
0.0069932048 -0.044943102 0.005035297
0.0089975148 -0.045025181 0.0050300122
0.011022196 -0.045052692 0.0050168452
0.013064839 -0.045064677 0.0049756663
0.015022737 -0.045065451 0.0049332087
0.017003046 -0.045010325 0.0050351676
0.019037403 -0.044934902 0.0051047439
0.021034999 -0.044944916 0.0051144781
0.022559926 -0.04494077 0.0053248778
-0.022460785 -0.042956147 0.0052537243
-0.021071782 -0.043017589 0.0050005014
-0.019038325 -0.042990271 0.0049436223
-0.017042629 -0.043000925 0.0049584252
-0.01508411 -0.043009628 0.0050018933
-0.013075307 -0.042984016 0.004985508
-0.010994826 -0.042999037 0.0049851751
-0.0090563213 -0.043046646 0.0050320867
-0.0070821727 -0.042996567 0.0049810396
-0.0050438782 -0.042987641 0.0050052875
-0.0030722788 -0.042994108 0.0050123371
-0.0010010273 -0.042993013 0.0050176182
0.001050508 -0.042934947 0.0050409739
0.0030297781 -0.042957492 0.0049885316
0.0049765217 -0.043022614 0.0050226361
0.0069874153 -0.042985667 0.0050073215
0.0089892801 -0.043029908 0.0050305654
0.011023026 -0.04301906 0.0050381608
0.01312503 -0.042958133 0.0050304416
0.01500611 -0.042982914 0.0050025941
0.016984543 -0.043035977 0.0050538084
0.019055098 -0.042968508 0.0050558415
0.02101706 -0.043030791 0.0050572064
0.022546051 -0.042998139 0.005261119
-0.022433018 -0.040974203 0.0052176421
-0.021059956 -0.041026916 0.0049674292
-0.019053586 -0.040962104 0.0049626501
-0.017091176 -0.041029267 0.0049765524
-0.015098718 -0.041012574 0.0049657533
-0.013048355 -0.04100642 0.0049722646
-0.010977279 -0.041000325 0.0049851141
-0.0089818388 -0.040979717 0.0050005564
-0.0069979061 -0.041006718 0.0049731983
-0.0050758389 -0.040994477 0.0049948464
-0.0030720788 -0.04103316 0.0050077927
-0.00098826666 -0.041011166 0.0050128885
0.0010691284 -0.040965512 0.0050051166
0.0029737598 -0.041034907 0.0049871323
0.0049650366 -0.041003007 0.0050053941
0.0069644707 -0.041013304 0.0049894457
0.009042359 -0.040976264 0.0050234743
0.011071117 -0.04100268 0.0050305417
0.01309669 -0.040998124 0.0050335759
0.015034379 -0.041017819 0.0050078011
0.017002445 -0.04104951 0.0050294623
0.01898911 -0.040965445 0.0050636404
0.021045219 -0.041010913 0.0050394395
0.0225465 -0.041010465 0.0052799964
-0.022454502 -0.038950443 0.005244669
-0.020998558 -0.039027136 0.0049242228
-0.019030772 -0.038977396 0.0049587036
-0.017066222 -0.039017688 0.0049630385
-0.01505936 -0.039048411 0.0049720588
-0.013010051 -0.038979806 0.0049871383
-0.010993536 -0.038945463 0.0049518319
-0.0089922622 -0.038997568 0.0049940203
-0.0069935704 -0.038992662 0.0049577304
-0.0049839392 -0.039003596 0.0049834885
-0.0029914049 -0.039115198 0.0049817273
-0.0010069372 -0.039063148 0.0050081084
0.001051416 -0.039011333 0.0049768374
0.0030659393 -0.039109696 0.0049955272
0.0050093322 -0.039014086 0.0050226743
0.0069655315 -0.039011639 0.0050029145
0.0089714937 -0.038994838 0.0049948436
0.011086739 -0.038983535 0.0050194352
0.013087616 -0.038958725 0.0050128759
0.015011773 -0.039023072 0.0050095725
0.016996358 -0.039035406 0.005015078
0.019028096 -0.038993169 0.0050458335
0.021055726 -0.038994521 0.0050327913
0.022532627 -0.039058667 0.0052889339
-0.022456076 -0.03695685 0.0052612373
-0.021000279 -0.037076879 0.0049732453
-0.019014139 -0.037028197 0.0049654362
-0.01703533 -0.037007086 0.0049650366
-0.015026101 -0.037072759 0.0049458747
-0.012972549 -0.036977891 0.004999497
-0.010959652 -0.036976635 0.0049516284
-0.0089968611 -0.03704096 0.0050022039
-0.0069730105 -0.037009239 0.004990763
-0.0049530896 -0.037018124 0.0049889153
-0.0029660761 -0.037094172 0.0050039697
-0.0010143502 -0.037099868 0.0050035659
0.0011199804 -0.037077341 0.004982369
0.0030012573 -0.037122257 0.0050070942
0.0050214189 -0.037008371 0.004992974
0.0069973301 -0.037043344 0.0049922182
0.0090406518 -0.037046187 0.0050185015
0.01109199 -0.036968891 0.0050368756
0.013074159 -0.036989748 0.0049975431
0.015053141 -0.037042279 0.0050340095
0.017028071 -0.037039973 0.005043393
0.019036548 -0.037006672 0.0050495695
0.020995889 -0.037059043 0.0050179623
0.022507979 -0.03700003 0.0052677197
-0.022423984 -0.034918591 0.0052138497
-0.021021437 -0.03506178 0.004944535
-0.01896139 -0.035032507 0.0049569984
-0.017011244 -0.034980461 0.0049744295
-0.015015186 -0.035034414 0.0049351328
-0.013000865 -0.035038516 0.0049897465
-0.010959297 -0.034989834 0.0049474607
-0.0088979714 -0.035058979 0.0049815462
-0.0069188965 -0.03501837 0.0049891262
-0.0049406737 -0.035018239 0.0049933451
-0.002979188 -0.035041735 0.0049740109
-0.00098511961 -0.035038088 0.0050120698
0.0011136206 -0.034997523 0.0049972371
0.0029812001 -0.035099894 0.0049732686
0.0049777143 -0.035002455 0.0049991929
0.0069843098 -0.035015643 0.0050306306
0.0089793177 -0.035058033 0.0049953391
0.011050442 -0.035004679 0.0050336681
0.013066622 -0.035008062 0.004986492
0.014991538 -0.035074107 0.0050193495
0.017012987 -0.034983788 0.0050197197
0.019009316 -0.035000052 0.0050409609
0.021045776 -0.03508684 0.0050353198
0.022548646 -0.035001922 0.0052326829
-0.022438833 -0.032907825 0.0052561774
-0.021015959 -0.033001177 0.0049745133
-0.018956808 -0.032982651 0.0049351589
-0.016957154 -0.033062853 0.0050008539
-0.015025468 -0.033046607 0.0049557271
-0.013052798 -0.033028014 0.0049747401
-0.011018469 -0.033067692 0.0049874075
-0.0089098141 -0.033046547 0.0049943891
-0.0069467686 -0.033030167 0.0049849804
-0.0049939258 -0.033009458 0.0050046081
-0.0029792937 -0.033011124 0.0050033727
-0.0010385816 -0.033002127 0.005003721
0.0010498535 -0.032959465 0.0050078388
0.0029282437 -0.033049554 0.0049794931
0.0049383221 -0.033000302 0.0050209225
0.0069047585 -0.032996971 0.0049892892
0.0089696208 -0.033074927 0.005017817
0.01106469 -0.033032227 0.0050246818
0.01306689 -0.033046901 0.0050356942
0.015004914 -0.033057291 0.0050148228
0.016957467 -0.033036463 0.0050410177
0.019016413 -0.033008579 0.0050392859
0.021081371 -0.032987718 0.005052017
0.022542879 -0.032945517 0.0052702925
-0.022454735 -0.030963903 0.0052265613
-0.021057548 -0.030893711 0.0049832086
-0.018996853 -0.030973392 0.0049428288
-0.017021418 -0.031024162 0.0049317908
-0.015029676 -0.030983681 0.0049767322
-0.013034543 -0.030961698 0.004968456
-0.010956554 -0.030986225 0.0049475478
-0.0088877259 -0.030965114 0.004972626
-0.0069311811 -0.030991141 0.0049702181
-0.0050122212 -0.030943412 0.0049825055
-0.0030294433 -0.030954072 0.0049814293
-0.0010529013 -0.030981669 0.0049875234
0.0010554381 -0.03100338 0.004986397
0.0030143894 -0.031004269 0.0049832962
0.0049432283 -0.030945821 0.0049953521
0.0069639576 -0.030965051 0.0050052456
0.0090137254 -0.030963542 0.005001754
0.011036479 -0.030997315 0.0049963086
0.013002884 -0.030981159 0.0050130147
0.015010927 -0.030958382 0.0050203018
0.017013485 -0.031019635 0.0050259358
0.018943226 -0.030996718 0.0050142226
0.021036722 -0.030929038 0.005059856
0.0225571 -0.030922292 0.005281846
-0.022432782 -0.028991064 0.0052045905
-0.021028593 -0.028986752 0.0049598715
-0.018962057 -0.028981145 0.0049662795
-0.016886966 -0.028988998 0.0049692225
-0.015023813 -0.02902199 0.0049972213
-0.013045982 -0.028986648 0.0049733757
-0.01090507 -0.029004138 0.0049740062
-0.0089172162 -0.028971281 0.0050052353
-0.0069482233 -0.028999554 0.0049862443
-0.0050148224 -0.028973952 0.0049964874
-0.0030570826 -0.028974203 0.0049854531
-0.0010268796 -0.029030535 0.0050117378
0.00095349969 -0.029014906 0.0050115325
0.0029821824 -0.029002348 0.00498997
0.0049727457 -0.028989736 0.005028931
0.0069694123 -0.028971411 0.0049964208
0.0090412134 -0.028956635 0.0050396225
0.011017572 -0.028998764 0.0050062086
0.013032638 -0.02900061 0.0050198007
0.014950389 -0.029009221 0.0050405664
0.017019145 -0.028986579 0.0050091418
0.019034911 -0.029027132 0.0050347676
0.021077987 -0.028982928 0.0050885961
0.022558434 -0.028965786 0.0052612349
-0.022510489 -0.026948478 0.005235238
-0.021121494 -0.027026162 0.0049768309
-0.018975677 -0.026924687 0.0049590007
-0.016924515 -0.026947979 0.0049639288
-0.014944762 -0.027001316 0.0049809623
-0.012959216 -0.026949016 0.0049266084
-0.010947193 -0.026953388 0.0049685799
-0.008968181 -0.026981775 0.0049740369
-0.0069995704 -0.02702692 0.0049857781
-0.0050428878 -0.026926598 0.0049983752
-0.0030197331 -0.026971603 0.0049768924
-0.0010786279 -0.02696879 0.0049767913
0.00092278817 -0.026926935 0.005008948
0.0029183822 -0.026979113 0.0049659144
0.0050040325 -0.026957382 0.0049947719
0.007032461 -0.026979558 0.0050101425
0.0090563856 -0.02696427 0.0050144503
0.010980905 -0.026974823 0.0049967654
0.012930535 -0.026955403 0.0050128405
0.014967087 -0.026975513 0.0049987873
0.01698667 -0.026962766 0.0050204974
0.01900907 -0.026913624 0.0050370931
0.021091292 -0.027020494 0.0050261253
0.02256844 -0.026985971 0.0053022606
-0.022463866 -0.025056409 0.0051921168
-0.021059567 -0.025039302 0.0049766223
-0.01900332 -0.024982272 0.0049502868
-0.016921248 -0.024986435 0.0049579963
-0.015015305 -0.02500453 0.0049646781
-0.013063884 -0.025012586 0.0049417904
-0.010933831 -0.02503025 0.0049727904
-0.0088723628 -0.02504985 0.004984397
-0.0069607818 -0.025032276 0.0049752914
-0.0050398987 -0.025038099 0.0049904175
-0.0030636617 -0.025071042 0.0049895919
-0.0010279588 -0.024993954 0.0050101415
0.00098850811 -0.024962414 0.0050119944
0.0029630086 -0.025037 0.0049650487
0.004910572 -0.025057316 0.005016847
0.0070085707 -0.025042502 0.0050217272
0.00905501 -0.02504719 0.0050177937
0.011039718 -0.025035918 0.0050081927
0.012995356 -0.024999056 0.0050297827
0.014934108 -0.02503014 0.0050217332
0.016989898 -0.024990819 0.005036694
0.018992286 -0.024939746 0.0050473614
0.021061424 -0.025033707 0.0050501046
0.022535127 -0.025049489 0.0052966573
-0.022399593 -0.023086285 0.0052611525
-0.02103761 -0.023017639 0.0049853954
-0.019026132 -0.022931503 0.0049437475
-0.016926469 -0.023007711 0.0049694674
-0.015021814 -0.022953561 0.0049752821
-0.01307189 -0.022953684 0.0049674981
-0.010966486 -0.022978429 0.0049405401
-0.0088747498 -0.022976132 0.0050055878
-0.0069219093 -0.02301495 0.0049742046
-0.0050366544 -0.023050912 0.0049722078
-0.0030157056 -0.023037951 0.0049910992
-0.0010686426 -0.023004748 0.0050053312
0.0010418796 -0.023010548 0.0050055347
0.002928819 -0.023000663 0.0049587889
0.004930628 -0.023069048 0.0050112759
0.006975261 -0.023022739 0.0050125569
0.0090888822 -0.022981025 0.0049931016
0.011025602 -0.023011677 0.0050251586
0.013006032 -0.022947697 0.0050022341
0.014978568 -0.022995863 0.0050274874
0.016965901 -0.02297469 0.0049976213
0.018975686 -0.02299436 0.0050293081
0.021016259 -0.023008147 0.005053116
0.022564536 -0.023046577 0.0052269362
-0.022457002 -0.021089608 0.0053072288
-0.021092791 -0.02093927 0.0049723913
-0.018944295 -0.020962665 0.0049484898
-0.01698635 -0.021011069 0.0049921563
-0.015048469 -0.020936528 0.0049671121
-0.013081437 -0.020958118 0.0049928222
-0.010968244 -0.020978753 0.0049686832
-0.0088914735 -0.020945983 0.0050086891
-0.0069215214 -0.020979397 0.004969276
-0.0049511553 -0.020990521 0.0049948147
-0.0030202006 -0.020963226 0.0049757417
-0.00099042023 -0.020963339 0.0050116503
0.001065967 -0.020990647 0.0049997815
0.0029963984 -0.020948047 0.0050111972
0.0049191206 -0.02099498 0.0050138026
0.0069645364 -0.020999365 0.0050422805
0.0089965435 -0.020927086 0.0050123567
0.011111104 -0.020986635 0.00501697
0.013048625 -0.020973206 0.0050252439
0.01501835 -0.020933898 0.0050460473
0.017084919 -0.020946672 0.0050396067
0.019010501 -0.02102311 0.0050194766
0.021051029 -0.020921666 0.0050709257
0.02253996 -0.020990716 0.0053150905
-0.022425024 -0.019022355 0.0052487724
-0.021066047 -0.018945862 0.0049739084
-0.018994017 -0.018981401 0.0049606194
-0.016993243 -0.018963393 0.0049768784
-0.015062562 -0.018918118 0.0049520605
-0.01299452 -0.018982567 0.0049586953
-0.01096123 -0.01899506 0.0049695247
-0.0089717563 -0.018957937 0.0049765268
-0.0069745518 -0.018973019 0.0049830079
-0.0049878005 -0.018989505 0.0050008669
-0.0029639152 -0.018944753 0.004987116
-0.00098164286 -0.018935915 0.0050153155
0.0011424338 -0.018949907 0.0049884408
0.0029482457 -0.018962126 0.0049743648
0.0049942671 -0.018969588 0.004984736
0.0069806105 -0.018982258 0.0050036991
0.0090482766 -0.018958418 0.005000114
0.011059479 -0.018971745 0.0050278166
0.01308759 -0.019002482 0.0050079417
0.015035748 -0.018921763 0.0050125117
0.017021127 -0.018937716 0.0050394414
0.019028703 -0.018990668 0.0050328234
0.020994665 -0.018985409 0.0050623626
0.02251116 -0.018970001 0.0052464241
-0.022422161 -0.016991403 0.0052669463
-0.021024372 -0.017006479 0.0049582901
-0.018995065 -0.017025951 0.0049591251
-0.017017718 -0.01699663 0.0049904645
-0.014997774 -0.016969366 0.0049678725
-0.012997933 -0.017000586 0.0049717627
-0.010995572 -0.017055165 0.0049788794
-0.0089467531 -0.016998742 0.0050098333
-0.0069739954 -0.017042482 0.0049780854
-0.0049159303 -0.016980829 0.0049672402
-0.0029479628 -0.01696822 0.0050037839
-0.00098309293 -0.016953241 0.0049957852
0.0010744382 -0.016990287 0.0050056628
0.0030388886 -0.016945487 0.0049912399
0.0050245021 -0.016985372 0.0050209821
0.0070114243 -0.017038086 0.0050151744
0.0090303896 -0.017003782 0.0050369236
0.011109649 -0.017011302 0.005016455
0.013059579 -0.01702938 0.0049969302
0.015051431 -0.017009912 0.0050107646
0.017068004 -0.016975889 0.0050381124
0.019082287 -0.017000197 0.005053204
0.021059494 -0.017008061 0.0050354176
0.02253288 -0.01698553 0.005289488
-0.02242863 -0.014993235 0.0052468101
-0.021084683 -0.014979358 0.0049597677
-0.019089617 -0.015001318 0.0049611889
-0.017066663 -0.01496741 0.0049486882
-0.015043537 -0.015012276 0.0049111382
-0.013002213 -0.015002651 0.0049476777
-0.01094704 -0.015069798 0.0049269404
-0.0089522842 -0.015016175 0.0049755215
-0.0069495658 -0.015052878 0.0049868645
-0.0049520452 -0.014962035 0.0049963892
-0.0029381807 -0.014951409 0.0050168387
-0.00099581701 -0.014989027 0.0049890964
0.0011075601 -0.015003908 0.0050171353
0.0030623602 -0.014980871 0.0049634986
0.0050089937 -0.014936551 0.0049837511
0.0069637601 -0.015043464 0.0049835648
0.0090076905 -0.014988715 0.0049920054
0.011078925 -0.015047356 0.0049494379
0.013118081 -0.015045318 0.0049740099
0.015041762 -0.015018553 0.0049899216
0.017047515 -0.014987572 0.0050195646
0.019042045 -0.015019293 0.005049529
0.021034198 -0.014966742 0.0050348113
0.02254656 -0.014964516 0.0052951211
-0.02238467 -0.012995309 0.0052250563
-0.021028133 -0.012998179 0.004961987
-0.019068981 -0.012999552 0.0049386555
-0.017097007 -0.012995231 0.0048918328
-0.015004922 -0.013076254 0.0048659425
-0.013042159 -0.013047878 0.0048486735
-0.010961175 -0.013172382 0.0048874887
-0.0089159822 -0.013072805 0.0049572494
-0.0070076347 -0.013003669 0.0049978569
-0.0050270124 -0.013003841 0.004994499
-0.0030306305 -0.012970998 0.0050078817
-0.0010059756 -0.013030975 0.0049934681
0.0010412486 -0.013067806 0.0050140824
0.0029948065 -0.013002299 0.0049321358
0.0049894592 -0.012979111 0.0049941204
0.0069923224 -0.013046478 0.004961682
0.008958661 -0.0130001 0.0049328879
0.01108411 -0.013137658 0.0049142232
0.013159422 -0.013088997 0.0048781475
0.01500635 -0.013074922 0.0049793036
0.017042192 -0.013010421 0.0050631114
0.019060085 -0.013019723 0.0050662602
0.021097517 -0.012992105 0.0050738417
0.022556314 -0.012939328 0.0053365068
-0.022404449 -0.011013335 0.0052140909
-0.021017188 -0.011041968 0.0049134954
-0.019031413 -0.01100565 0.0048913718
-0.017013263 -0.011050745 0.0048391405
-0.01513388 -0.011084217 0.0047439155
-0.013221317 -0.010952569 0.0047585187
-0.010973117 -0.011237971 0.0048242901
-0.0088980328 -0.011045448 0.004968951
-0.006882411 -0.011015068 0.0049917572
-0.0050630462 -0.010985109 0.0049819364
-0.0030294226 -0.010975603 0.0049479548
-0.0010078864 -0.011019524 0.0049899891
0.0010421824 -0.011043683 0.0049660662
0.0030436544 -0.010989292 0.0049421489
0.0050629317 -0.010983056 0.0049489159
0.0069517302 -0.011025961 0.0049297707
0.0089312959 -0.010986883 0.0048872745
0.010919413 -0.011107606 0.0047022942
0.013143763 -0.011051534 0.0048455358
0.015117371 -0.011011667 0.0048792106
0.017071526 -0.011102884 0.0050443877
0.019112993 -0.011011953 0.0050325613
0.021024199 -0.011034019 0.0050684344
0.022524474 -0.011045299 0.0053590243
-0.022424817 -0.0089691626 0.0052761012
-0.021067968 -0.0090294667 0.0048599443
-0.019023869 -0.0090641445 0.0048779682
-0.016957536 -0.009067161 0.0047794534
-0.015221421 -0.0090570459 0.0047664521
-0.013177287 -0.0091982214 0.0047155549
-0.010985819 -0.009172258 0.0049075768
-0.0087981457 -0.0091401087 0.0050550569
-0.0069112056 -0.0090030991 0.0049781674
-0.0050281985 -0.009027373 0.0049794926
-0.0029951339 -0.0090156132 0.0049124365
-0.00099727046 -0.0090012932 0.0049420404
0.0011045374 -0.0090485327 0.0049174209
0.0030390855 -0.0090326387 0.004888433
0.0049658823 -0.00899739 0.0048918589
0.0069836872 -0.0090139126 0.0048648017
0.0089607751 -0.0090864627 0.004782374
0.010842757 -0.0092012882 0.0046993666
0.013129343 -0.0092331758 0.0046691769
0.014956199 -0.0090976823 0.0050275214
0.017069366 -0.0091030039 0.0050449469
0.01910587 -0.0090941759 0.005021791
0.021102047 -0.009027225 0.0050625019
0.02255019 -0.0090903835 0.0052873837
-0.022403369 -0.0069674687 0.0050907326
-0.021040212 -0.0074134534 0.0046192599
-0.018908678 -0.0073208269 0.004702874
-0.017092761 -0.0074210265 0.0045869672
-0.015190716 -0.0075278501 0.0046549509
-0.01299634 -0.0074308994 0.004554031
-0.010587289 -0.0073627406 0.0050221249
-0.0087537104 -0.00745288 0.0047697485
-0.0069203465 -0.0074235434 0.0046802592
-0.0049825674 -0.0074626575 0.0047684689
-0.0029885005 -0.0074521191 0.0046886061
-0.00098487292 -0.0074268105 0.0046684057
0.0010805662 -0.0074923867 0.0046580303
0.0030320382 -0.0074353786 0.0046483637
0.0050097476 -0.0074766804 0.0046474407
0.0069616768 -0.0074604824 0.0045884582
0.008784296 -0.0074468362 0.0045555579
0.01070135 -0.007491366 0.0045092087
0.013095055 -0.0074246507 0.0049295737
0.015195624 -0.0074287876 0.0047743884
0.017057465 -0.0072814585 0.0047296211
0.01906525 -0.0074228863 0.0048184483
0.021113716 -0.0073575187 0.0047105346
0.022557629 -0.0069400514 0.0049861399
-0.022393256 -0.0050540273 0.0050573968
-0.02094456 -0.0050053936 0.0050889915
-0.018994093 -0.0057758819 0.0048691588
-0.016926531 -0.0057045999 0.0050754705
-0.015396262 -0.0047353199 0.0050389082
0.015312309 -0.0048441077 0.0051432643
0.01692955 -0.0057915319 0.0050920942
0.019061469 -0.0057049035 0.0050573228
0.020960983 -0.0049197031 0.0050241337
0.022606304 -0.0050401236 0.0049383584
-0.022410568 -0.0030258421 0.0050364956
-0.02141241 -0.0030891122 0.0050600865
-0.015091925 -0.0029095714 0.0050823623
0.014950297 -0.0029367968 0.0049932869
0.021399429 -0.0031626369 0.0051001045
0.022584539 -0.0030127894 0.0050049196
-0.022378776 -0.0010462282 0.004996316
-0.021070505 -0.00095025246 0.0048837597
-0.019104494 -0.00072951434 0.0047927517
-0.016878055 -0.00081047742 0.004898712
-0.015562926 -0.00097465882 0.0048423307
-0.013228312 -1.7881393e-07 0.0045508426
-0.011279985 -1.4901161e-07 0.0045508426
-0.0093316287 -1.7881393e-07 0.0045508426
-0.0073832721 -1.4901161e-07 0.0045508426
-0.0054349746 -1.7881393e-07 0.0045508426
-0.0029995488 -1.7881393e-07 0.0045508426
-0.00056412781 -1.7881393e-07 0.0045508426
0.0013842437 -1.7881393e-07 0.0045508426
0.0033325856 -1.7881393e-07 0.0045508426
0.0052808826 -1.4901161e-07 0.0045508426
0.0072292243 -1.7881393e-07 0.0045508426
0.0091775805 -1.4901161e-07 0.0045508426
0.011125922 -1.7881393e-07 0.0045508426
0.013074249 -1.1920929e-07 0.0045508426
0.015367241 -0.00097324193 0.0050421022
0.017028751 -0.00077987352 0.0049123354
0.018934485 -0.00055781979 0.0047465186
0.021164041 -0.0011296065 0.0049304799
0.02259356 -0.0010159643 0.0049536964
-0.022446599 0.00027218802 0.0050322339
-0.021058351 0.00028541955 0.005009755
-0.019025156 0.00030896929 0.0050430796
-0.017007742 0.00029256876 0.0049477019
-0.015044914 0.00029874514 0.0049453601
-0.013039661 0.00029282889 0.0050375308
-0.011038631 0.00031166122 0.0049454179
-0.0089562479 0.00029085379 0.0050272276
-0.0070179808 0.00030071006 0.0050154659
-0.0050614136 0.00030021067 0.0049397005
-0.0030326487 0.00031511343 0.0049981559
-0.00092503364 0.00029913202 0.0050058533
0.00098948414 0.00029634024 0.0049843504
0.0029923203 0.00031300087 0.0049929982
0.0050435639 0.00030431736 0.004939822
0.0070241191 0.00029543572 0.0050225588
0.0089601846 0.00029143103 0.0050049745
0.010986207 0.00030982925 0.0049279337
0.013001229 0.00029709828 0.0050961706
0.015061929 0.00029389196 0.0049261185
0.01701414 0.00029028251 0.0049366057
0.018952526 0.00030791189 0.0050465502
0.021040343 0.00028883218 0.0050389357
0.022497138 0.00025881766 0.0049930871
-0.022466512 -0.056661826 0.0067945486
-0.021019446 -0.05688471 0.0069012968
-0.019005898 -0.05692463 0.0069438638
-0.017014639 -0.056911923 0.0068937209
-0.015002073 -0.056928225 0.0069081741
-0.012949906 -0.056940787 0.0068894345
-0.011019862 -0.056942876 0.0069185784
-0.0089299334 -0.056941565 0.0069457646
-0.0069933338 -0.056947384 0.0069780177
-0.0050528399 -0.056945235 0.0068936758
-0.0030021942 -0.056991506 0.006877155
-0.00091714191 -0.056941729 0.0069786743
0.00099557871 -0.056956872 0.0069302907
0.0030243832 -0.056966033 0.0069392035
0.0050661294 -0.056935757 0.0069399374
0.0070033404 -0.056991417 0.0069506643
0.0090266094 -0.056934897 0.0070482017
0.011025989 -0.056957599 0.0069780122
0.012997216 -0.056975842 0.006991561
0.015030877 -0.056965265 0.0069788829
0.016958134 -0.056939628 0.0069622044
0.019054212 -0.056929026 0.0070586028
0.020990495 -0.056900527 0.0070328647
0.022563174 -0.056729198 0.0068906737
-0.022545006 -0.054960348 0.0067667528
-0.021312347 -0.05509387 0.0071503399
-0.019012699 -0.055703331 0.0068145404
-0.016630184 -0.055479582 0.0069753998
-0.015135908 -0.054984637 0.007124064
-0.012994101 -0.054901432 0.0072908197
-0.010929427 -0.055001196 0.0073295296
-0.0089319693 -0.055065595 0.007298022
-0.0069432845 -0.055077013 0.0073306216
-0.004929095 -0.055041336 0.0073527228
-0.0029325243 -0.05507119 0.0073841228
-0.00095874572 -0.05488117 0.007366484
0.0010711087 -0.054946467 0.0073538036
0.0029708005 -0.055202842 0.007452772
0.0048731784 -0.054997832 0.0074460981
0.0069315555 -0.055101417 0.0074303048
0.0088753821 -0.055050898 0.0074521075
0.011137697 -0.054915972 0.0074658296
0.012978259 -0.05493081 0.007539345
0.01503614 -0.05505066 0.0072644521
0.016807966 -0.055569146 0.0071097668
0.019114539 -0.055514444 0.0072072516
0.021123402 -0.055013835 0.0072511705
0.022658814 -0.054973502 0.0068686097
-0.022489835 -0.05300929 0.0068125934
-0.021327052 -0.052840944 0.0071253334
-0.015090279 -0.052946575 0.0069605405
-0.012977759 -0.052945651 0.0074030287
-0.011009569 -0.052965276 0.0073812231
-0.0090688616 -0.052918036 0.0074528465
-0.0071019614 -0.052963138 0.0073903953
-0.0049573346 -0.052944198 0.0074875732
-0.0029044293 -0.052851379 0.0074594528
-0.0010115787 -0.052889347 0.007507273
0.00105066 -0.052865263 0.0074320566
0.0029805989 -0.052987598 0.0074645346
0.0049630729 -0.052879255 0.0074835476
0.0070984187 -0.052926697 0.0074539841
0.0090031922 -0.05291393 0.0075434465
0.010931142 -0.052862462 0.0074981432
0.013014509 -0.05307588 0.007460861
0.014958977 -0.052905235 0.0072067026
0.021136796 -0.053026471 0.0072285612
0.022632042 -0.052997954 0.0069344728
-0.022517582 -0.050998703 0.0067410907
-0.021015411 -0.051144663 0.0071044937
-0.019078316 -0.050836831 0.0070333821
-0.016920809 -0.051020846 0.006991663
-0.014999438 -0.051008049 0.0073246006
-0.013427893 -0.051255818 0.0074381637
0.013300435 -0.051247906 0.0075380192
0.015259936 -0.051238835 0.0072198198
0.016857067 -0.050971385 0.0070988666
0.018976875 -0.051007934 0.007066289
0.02106498 -0.051101223 0.0073475959
0.022662807 -0.051036734 0.0069041937
-0.02249014 -0.048927285 0.0069704903
-0.021023557 -0.049380835 0.0073673679
-0.019063596 -0.049441952 0.0075146998
-0.017004116 -0.04947786 0.0074701556
-0.01537658 -0.049723312 0.0074221473
0.014859246 -0.049784057 0.0075180479
0.016984988 -0.049478963 0.0076298998
0.019083472 -0.049521443 0.0075437273
0.02118925 -0.049282193 0.0073616607
0.022624604 -0.048958726 0.0070179845
-0.022495473 -0.046990339 0.0069613089
-0.02190158 -0.047198832 0.0070269099
0.021865575 -0.047068 0.0070288307
0.022636166 -0.046985976 0.0070040706
-0.022488197 -0.045019485 0.0069158473
-0.021905433 -0.044963881 0.0071195103
0.02188791 -0.044909175 0.0069861691
0.022634365 -0.04500296 0.0070248526
-0.022514205 -0.042998694 0.0069315233
-0.021780865 -0.043288093 0.0071581146
0.021863274 -0.042988941 0.0070787608
0.022639466 -0.043045595 0.0070148152
-0.022461936 -0.041068122 0.0065769772
-0.021650949 -0.04098868 0.0072272914
0.021632986 -0.041067258 0.0075002532
0.0225631 -0.040987436 0.0067744153
-0.022481011 -0.038911071 0.0069068917
-0.021796457 -0.039338443 0.0070484434
0.021742767 -0.039356701 0.007258526
0.022609593 -0.038982611 0.0069333087
-0.02249269 -0.036970139 0.0070355502
-0.021931732 -0.03711576 0.0070881913
0.021913227 -0.036893651 0.0070708916
0.022637501 -0.037011143 0.0069317506
-0.022474717 -0.03493838 0.007003732
-0.021917397 -0.035187598 0.0071005966
0.021818804 -0.03489903 0.0070499587
0.022651648 -0.03497842 0.0069924504
-0.022459643 -0.032999638 0.0069212462
-0.021926681 -0.032924704 0.0070202304
0.021869212 -0.032725919 0.0070198127
0.022641171 -0.033029348 0.0069961636
-0.022460457 -0.031050893 0.0069545861
-0.021916645 -0.030936688 0.007051738
0.021873951 -0.030837335 0.0073664766
0.022631956 -0.03100583 0.0071050548
-0.02249511 -0.029033376 0.006956805
-0.02192696 -0.029067008 0.0068996088
0.021843806 -0.029105024 0.0066593592
0.022620099 -0.028956747 0.0069830641
-0.022424307 -0.027004784 0.0069539365
-0.021930901 -0.027076079 0.0068331477
0.021897687 -0.026970835 0.0065287631
0.022623545 -0.026960658 0.006990042
-0.022442978 -0.025003133 0.0069680023
-0.021951679 -0.02499434 0.0071064113
0.021860629 -0.02512008 0.0069119129
0.022611242 -0.025024375 0.0070588994
-0.022458659 -0.02299618 0.0069832816
-0.021939788 -0.022905612 0.007220774
0.021865886 -0.023160134 0.0069049047
0.02260544 -0.023016186 0.0070151743
-0.022461737 -0.020977283 0.0069971052
-0.021957789 -0.020782052 0.0070411307
0.021834197 -0.021169966 0.0072585177
0.022594277 -0.02102365 0.0070322542
-0.022444027 -0.018960595 0.007030495
-0.021958325 -0.018913761 0.0068676732
0.021922505 -0.019256216 0.0068893046
0.022615159 -0.01896508 0.0069894968
-0.022437908 -0.017163072 0.0067805871
-0.021609759 -0.01684593 0.0071814605
0.02161245 -0.016765401 0.007356409
0.022579066 -0.017010843 0.0067990618
-0.022420883 -0.014732715 0.0067720669
-0.021659099 -0.015369838 0.0072543249
0.02169423 -0.015209939 0.0073608337
0.02260172 -0.014904826 0.0068789776
-0.022446705 -0.012994235 0.0069721472
-0.021957541 -0.013058297 0.0069063804
0.021887658 -0.013113526 0.0070638256
0.022587659 -0.01299777 0.007025246
-0.022426844 -0.011049585 0.0069236136
-0.021952966 -0.011392026 0.0068965554
0.021878095 -0.011337949 0.0069991765
0.022532282 -0.011029051 0.0070596375
-0.022402626 -0.0090614315 0.0069441521
-0.02193532 -0.0092325909 0.0072870716
0.021870663 -0.0089630364 0.0070873895
0.0225704 -0.0090213809 0.0069799391
-0.022426147 -0.0071593281 0.0068875458
-0.021062192 -0.0070472327 0.0072048171
-0.019008191 -0.0069521428 0.0071881493
-0.01709217 -0.007013659 0.0071801115
-0.015144354 -0.0067883865 0.007248376
-0.013513274 -0.0064252624 0.0075186314
0.013530603 -0.0063986192 0.0076173968
0.015091855 -0.0067466428 0.0074048862
0.017003832 -0.0069303168 0.0073883189
0.018986389 -0.006893293 0.0072819986
0.021014163 -0.0070094243 0.0073805051
0.022540478 -0.0070704878 0.0069919736
-0.02245187 -0.0050160568 0.006808687
-0.021165727 -0.0050692391 0.0070173573
-0.018848795 -0.005792941 0.0068604471
-0.016841223 -0.0057364306 0.0068694595
-0.015048201 -0.0049259802 0.0069438778
-0.012938173 -0.0049069603 0.0072724177
-0.011031444 -0.0043396596 0.007317814
-0.0089503583 -0.0043569221 0.0074151736
-0.0070519154 -0.0043379269 0.007342305
-0.005080509 -0.0043719378 0.0074656103
-0.0028686575 -0.0043725884 0.007336339
-0.00090635289 -0.0043324572 0.0074272519
0.00087224168 -0.0043481807 0.0073615313
0.0030111263 -0.0043733967 0.0073512457
0.0050920281 -0.00435013 0.0074793505
0.0071480679 -0.0043541803 0.0074489885
0.0090124579 -0.0043102796 0.0073519838
0.010990395 -0.004345872 0.007447687
0.013069595 -0.0048897867 0.007320357
0.014985841 -0.0049721012 0.0070982352
0.016870031 -0.0057461592 0.0070057306
0.018919362 -0.0057863453 0.0071070977
0.021079179 -0.0050359317 0.0071500074
0.02257194 -0.005003788 0.0069108568
-0.022463406 -0.002990355 0.0067975032
-0.02160784 -0.0030281227 0.0069835447
-0.014821532 -0.0029697684 0.007016202
-0.012956492 -0.0029393921 0.0071206586
-0.010953938 -0.0029825445 0.0071633691
-0.0090399915 -0.0029497172 0.0071688374
-0.0070356866 -0.0030013171 0.0071707154
-0.0050567659 -0.0030251781 0.0072520063
-0.0029251571 -0.0029448452 0.0072385874
-0.0008925983 -0.0030036303 0.0071573481
0.0011289633 -0.0029922409 0.0072579845
0.0030184775 -0.00294929 0.0072345724
0.0050125532 -0.0030735617 0.0072546429
0.0070535662 -0.0030236116 0.0072568585
0.0089600002 -0.0029418929 0.0072990875
0.011083692 -0.0029090294 0.0072874622
0.013061948 -0.0030487492 0.0073882863
0.014663838 -0.0029096927 0.0070632454
0.021450192 -0.0028742694 0.0072225011
0.022570584 -0.0030078588 0.0069588698
-0.022464367 -0.0010214486 0.0068487991
-0.021163104 -0.00077520497 0.0070818034
-0.019098718 -0.00044954743 0.0070198919
-0.016954146 -0.00051364896 0.0070457626
-0.015060793 -0.00088900706 0.0070519471
-0.012984064 -0.00079584378 0.0071311183
-0.011017293 -0.00077326054 0.0070958496
-0.009082891 -0.0008582765 0.0071431641
-0.0070562097 -0.0007828087 0.0071713482
-0.0050431197 -0.00088059838 0.0071800468
-0.0030320098 -0.00078254676 0.0071162544
-0.00089574739 -0.00078839739 0.0071703065
0.0010508769 -0.00080686132 0.0071511674
0.0030424832 -0.00085708534 0.0072221179
0.0050292853 -0.00083121099 0.007220827
0.0069712824 -0.00081424078 0.0072652185
0.009042345 -0.00082993117 0.0072702146
0.011057095 -0.00073840434 0.0072689173
0.012911489 -0.00086490298 0.0073085274
0.014952159 -0.00083081936 0.007238986
0.016930496 -0.00046933172 0.0073245531
0.018978205 -0.000442405 0.0071384548
0.021016262 -0.00087176339 0.0072771031
0.022543503 -0.0010044669 0.0069063222
-0.022500256 0.00026827052 0.006679852
-0.021004671 0.00028115016 0.0066256751
-0.018961985 0.00025184421 0.0067003085
-0.017042102 0.00026142836 0.0066233855
-0.014927464 0.00025097909 0.0066681076
-0.012986564 0.00025703205 0.0066892942
-0.010949112 0.00028342684 0.006644608
-0.0089923451 0.00026179492 0.0066893497
-0.0069735376 0.00026410041 0.0067296373
-0.0049657039 0.00027192992 0.0066499971
-0.0029987758 0.00026145409 0.0066828853
-0.0010698455 0.00028834696 0.0066994713
0.0010763111 0.00027770098 0.0066827126
0.0030099901 0.00026185199 0.0066803368
0.0050178268 0.00026774718 0.0066600293
0.0070153656 0.00025734951 0.006717952
0.0090203527 0.00026637109 0.0067089796
0.010948509 0.00027699021 0.0066642202
0.013027113 0.00024455626 0.0067230444
0.014962878 0.00025662244 0.006672753
0.017025013 0.0002542953 0.0066948356
0.01904694 0.00024699501 0.0067677228
0.020977691 0.00028027734 0.0067157452
0.022502201 0.00023270336 0.0067772749
-0.022184983 -0.056103665 0.008232153
-0.021096388 -0.056318298 0.0081701102
-0.019277792 -0.056381516 0.0081529394
-0.017084159 -0.056381512 0.008110431
-0.015182142 -0.056297641 0.0081328293
-0.013079844 -0.056424439 0.0081345541
-0.010857276 -0.056371313 0.0081174951
-0.0093985051 -0.05646465 0.0080932966
-0.0070682382 -0.056200601 0.0081915567
-0.0049249115 -0.056323316 0.0081153279
-0.0030104693 -0.056331553 0.0080913873
-0.00091627642 -0.056262184 0.008112927
0.0010025185 -0.056373954 0.0081027895
0.0030567197 -0.056388535 0.0080798622
0.0046512396 -0.056458093 0.0080770114
0.0070583983 -0.056323539 0.008116778
0.0092890495 -0.056191351 0.0081346352
0.010870442 -0.056326851 0.0080927573
0.012918387 -0.056325257 0.0080978265
0.014803901 -0.056365285 0.0080778291
0.016857902 -0.056322142 0.0081091952
0.019134905 -0.056426577 0.0080826636
0.021039678 -0.056282051 0.0080821747
0.022109764 -0.056111604 0.0081211589
-0.022257049 -0.054917909 0.0081927739
-0.02101027 -0.055099238 0.0081556756
-0.018093161 -0.055874992 0.0081924573
-0.016609758 -0.055769648 0.0081685111
-0.01483151 -0.055158772 0.0081439298
-0.012864442 -0.054937877 0.0081566144
-0.011130692 -0.054921411 0.0081488509
-0.0088721225 -0.055062685 0.0081449114
-0.007138045 -0.055048969 0.0081404652
-0.0052224505 -0.055079438 0.0081392536
-0.0030173138 -0.055151135 0.0081263147
-0.00098619377 -0.05489932 0.0081260763
0.0010552856 -0.054992191 0.0081192451
0.0030409044 -0.055100877 0.008135681
0.0050137057 -0.0549911 0.0081161261
0.0069449381 -0.055046137 0.0081154862
0.0089667579 -0.054940436 0.0081020929
0.010923813 -0.055031125 0.0081023742
0.013021469 -0.054932505 0.0081053674
0.014922364 -0.055151809 0.0080905147
0.016888537 -0.055739392 0.0080599124
0.019184055 -0.055848937 0.0080744522
0.021296142 -0.055071253 0.0080772676
0.022396496 -0.054946944 0.0080953976
-0.022387803 -0.052978531 0.0081531713
-0.021309212 -0.053072616 0.0081494972
-0.014700488 -0.053042922 0.0081307506
-0.012711675 -0.052632563 0.0085724741
-0.01093546 -0.052598197 0.0088691516
-0.0089032548 -0.052622069 0.0088545252
-0.0070060943 -0.052642688 0.0088415211
-0.0049441094 -0.052613944 0.0089059323
-0.0029591853 -0.052639399 0.0088416198
-0.0010111207 -0.052585013 0.0088581974
0.0010610747 -0.052628778 0.0088284807
0.002969123 -0.052611139 0.0088166678
0.0049398202 -0.052647192 0.0088803675
0.0069710533 -0.052675329 0.0088275215
0.0089608422 -0.052651383 0.0087399837
0.010932212 -0.052658707 0.0087660523
0.012687587 -0.052686639 0.0086000189
0.014405979 -0.052943531 0.0080895731
0.021434488 -0.052890237 0.008068868
0.022078309 -0.052708149 0.0080567356
-0.022514286 -0.050748944 0.0081345281
-0.021267284 -0.050850715 0.0081652375
-0.019219942 -0.050561838 0.008137037
-0.01694244 -0.050530095 0.008150734
-0.014681714 -0.050544601 0.008822321
-0.013306112 -0.051210281 0.0089590894
0.011958007 -0.051968224 0.0081960438
0.013222636 -0.051177412 0.0089075137
0.014761996 -0.050729472 0.0085426252
0.017030586 -0.050454296 0.0081117935
0.019089438 -0.050498076 0.0080803642
0.02102926 -0.050898734 0.0080901086
0.022264602 -0.050928771 0.0080791712
-0.022490565 -0.04877292 0.0089696543
-0.021111829 -0.049282964 0.0089382296
-0.019026836 -0.049298868 0.0090143215
-0.016985618 -0.049351789 0.0090083797
-0.015255237 -0.049720306 0.0089370925
0.013804158 -0.049853638 0.0089997752
0.015213441 -0.04967742 0.0088545531
0.016998056 -0.049369331 0.008890559
0.019038683 -0.049317949 0.008932936
0.021115215 -0.049284209 0.0089019118
0.022611167 -0.048829064 0.0089993021
-0.022510344 -0.04697812 0.0090048267
-0.021900654 -0.04709987 0.0091959182
0.021868713 -0.046858739 0.0091269584
0.022681283 -0.04699884 0.0090305647
-0.022481134 -0.045009192 0.0089583099
-0.021916667 -0.044807594 0.009085997
0.021885438 -0.044894148 0.0090867095
0.022680564 -0.045021083 0.0090734707
-0.022510247 -0.042984981 0.0089429542
-0.021825423 -0.042742424 0.0091146426
0.021884572 -0.043228038 0.0090523716
0.022657864 -0.043005668 0.0090467157
-0.022288464 -0.041305162 0.0089031011
-0.021557761 -0.04106655 0.0089970296
0.021614643 -0.040984862 0.0089831743
0.022286139 -0.041260734 0.0089227064
-0.02247298 -0.038818102 0.0089650359
-0.021733236 -0.039539039 0.0090533374
0.021711078 -0.039487805 0.0089786761
0.022585459 -0.038833 0.0089575741
-0.022505585 -0.036966793 0.0089389104
-0.021928016 -0.036926825 0.0093124146
0.021833351 -0.037324697 0.009025923
0.022627614 -0.03701419 0.008982759
-0.022455122 -0.034983922 0.0089274505
-0.021898843 -0.034991633 0.0092202686
0.021875594 -0.035072528 0.0090085678
0.022611808 -0.034999158 0.0090033421
-0.022458658 -0.032966405 0.0089262938
-0.021870954 -0.033086799 0.0091477605
0.021881163 -0.033034194 0.0089239869
0.022619897 -0.032991134 0.0090555474
-0.022440083 -0.030976722 0.0089430138
-0.021908591 -0.030947929 0.0090562198
0.021843575 -0.030968292 0.0090528149
0.022634558 -0.031002274 0.0090657249
-0.022477334 -0.029004162 0.0089412024
-0.021944255 -0.029052464 0.0089743156
0.021885766 -0.028920777 0.0090125781
0.022622952 -0.029005088 0.0090305693
-0.022461677 -0.026985234 0.0089457911
-0.021922654 -0.027161887 0.009141271
0.021879263 -0.026716515 0.0088779544
0.022624966 -0.027016813 0.008993485
-0.022465436 -0.025061233 0.0089622876
-0.021920821 -0.024919476 0.009346785
0.021930085 -0.024956763 0.0089964243
0.022633007 -0.025037792 0.0090597244
-0.022432813 -0.023062712 0.0089780446
-0.021935811 -0.022950985 0.0091127874
0.021854766 -0.02298636 0.0090075219
0.022605797 -0.022994485 0.0090385024
-0.022458429 -0.02098888 0.0089396741
-0.021956125 -0.020729559 0.0088930083
0.021875437 -0.020902924 0.0088558011
0.022619769 -0.021027638 0.0089508947
-0.022469034 -0.018970408 0.008958823
-0.021939876 -0.01910744 0.0090692649
0.021886675 -0.018853929 0.0090834368
0.022574537 -0.018959831 0.0089728264
-0.022419512 -0.017434858 0.0089457463
-0.021533586 -0.016828468 0.0090435091
0.021625688 -0.016837604 0.0090399934
0.022448156 -0.017455107 0.0089360932
-0.02240495 -0.01455861 0.0089836745
-0.021633349 -0.015284373 0.0089683775
0.021714993 -0.015308936 0.0089525785
0.022502163 -0.014664272 0.0089532118
-0.022427974 -0.012988341 0.0088770268
-0.021961136 -0.013050111 0.0089848628
0.021854848 -0.012916016 0.0091551943
0.022596246 -0.012932004 0.0090113832
-0.022444021 -0.011035594 0.008963706
-0.021969767 -0.011032612 0.0087685166
0.021862656 -0.010705057 0.0091825835
0.022598416 -0.010990318 0.009038371
-0.022443868 -0.0090261316 0.0089910701
-0.021933043 -0.0088979937 0.009171661
0.021858098 -0.0090913642 0.0090624066
0.022599729 -0.009050034 0.0090588517
-0.022457119 -0.0076532625 0.0088749984
-0.021192273 -0.007609773 0.0088735502
-0.019185454 -0.0075643975 0.0089761941
-0.017105075 -0.0075743673 0.00897865
-0.01505257 -0.0071137697 0.0090154745
-0.01355549 -0.0064494428 0.008993309
0.013413936 -0.0063637625 0.0090083117
0.014971226 -0.0070849298 0.008961468
0.017129909 -0.0075228405 0.0089179678
0.019143756 -0.007564574 0.0089505147
0.021215999 -0.0075697792 0.008853686
0.022550315 -0.0076705376 0.0090343822
-0.022341192 -0.0047225622 0.0080300868
-0.021337852 -0.0040367655 0.0081635825
-0.017122928 -0.0058732461 0.0080902213
-0.014821132 -0.0046384451 0.0081495838
-0.012718458 -0.0050932523 0.0090033337
-0.010950136 -0.0044732541 0.0089792488
-0.0089338366 -0.0044484152 0.0090925675
-0.0069110789 -0.0044507929 0.008997824
-0.0049217343 -0.0044534402 0.0090885479
-0.0030803559 -0.0044343211 0.0090484535
-0.0010485307 -0.0044612801 0.0090415198
0.0010852964 -0.004467017 0.0090568224
0.0030917921 -0.0044261883 0.0090091173
0.0049556727 -0.0044496427 0.0091122799
0.0070028086 -0.0044526998 0.0090086227
0.0090004988 -0.0044383286 0.0090344688
0.010953732 -0.0044950601 0.0090454537
0.012544712 -0.0050393967 0.0089501031
0.014704471 -0.0049573192 0.0080320779
0.019829873 -0.0055510504 0.008083974
0.021325234 -0.0050198529 0.0080798687
0.02228348 -0.0047068582 0.0081881303
-0.022414166 -0.0026567762 0.0080617871
-0.021818005 -0.0020889819 0.0080053769
-0.014700603 -0.0023515257 0.0080627277
-0.013022674 -0.0032337364 0.00807337
-0.011052031 -0.0028102549 0.0080526667
-0.0084695052 -0.0028858625 0.0080544744
-0.0068479674 -0.002849482 0.0080214385
-0.0054356325 -0.0035793358 0.0080358181
-0.0034830659 -0.0030506738 0.0080378186
-0.0014761625 -0.0028581556 0.0080415262
0.0009755643 -0.002950202 0.008035345
0.0033164003 -0.0027085075 0.0080171824
0.004924641 -0.003271959 0.0080201291
0.006472283 -0.0028411762 0.0080495477
0.0093375556 -0.0027762298 0.0080412468
0.010482675 -0.0032037909 0.0080441786
0.012713041 -0.0028973564 0.0080486033
0.014470013 -0.0027175699 0.0080419425
0.021519149 -0.0029377858 0.0081138499
0.02230286 -0.0026624366 0.0081526395
-0.022608519 -0.0011057893 0.0080342665
-0.020778872 -0.00037950382 0.0080956165
-0.019551689 -0.00041852263 0.008136658
-0.017234445 -0.00060443155 0.0080389474
-0.015059388 -0.0010799241 0.008074481
-0.012675254 -0.0014168089 0.0080439532
-0.010867164 -0.0011209997 0.0080594439
-0.0088446829 -0.0010634451 0.0080708154
-0.0063654669 -0.00080956734 0.0080746673
-0.0049211974 -0.0010121852 0.0080557065
-0.002963986 -0.00098416605 0.0080599943
-0.0010775982 -0.0011349549 0.0080573745
0.00082534307 -0.0010250944 0.0080594635
0.003353338 -0.0010271115 0.0080754785
0.0049763769 -0.0011524211 0.0080408771
0.0065269764 -0.0009379214 0.0080654109
0.008854527 -0.00091548974 0.0080402549
0.010772625 -0.00087936444 0.0080652023
0.012860849 -0.00090229267 0.0080793658
0.014903787 -0.0010313266 0.0080507202
0.017052636 -0.00055344787 0.0081196334
0.019225931 -0.00061233062 0.0081372382
0.021238269 -0.00096662674 0.0081154732
0.022491755 -0.0010343036 0.0081076249
-0.012550579 4.7964979e-05 0.0080142347
0.016965605 1.323372e-05 0.0080208089
-0.012508795 -0.052304357 0.010941471
-0.011026785 -0.052463252 0.01104995
-0.008996374 -0.052459929 0.01103068
-0.0070096543 -0.052446771 0.011045508
-0.0049226452 -0.052455422 0.011022057
-0.0029654505 -0.052451175 0.011063745
-0.0009592264 -0.052448895 0.011014121
0.00099062989 -0.052445929 0.011055765
0.003004415 -0.052449554 0.011030562
0.0049776826 -0.052457433 0.011028402
0.0070197308 -0.052451823 0.011058154
0.0090030944 -0.052458003 0.011047902
0.010969109 -0.052460391 0.011006336
0.012466291 -0.052355405 0.011076097
-0.014580452 -0.050293457 0.01102407
-0.013292227 -0.05115629 0.010932457
0.013252676 -0.05117961 0.011009216
0.014469669 -0.05034449 0.010992829
-0.022491351 -0.048786592 0.010970333
-0.021047357 -0.049223948 0.010991716
-0.018998045 -0.049270395 0.011062476
-0.016983476 -0.049336433 0.011019843
-0.0152748 -0.049668793 0.010973246
0.013857783 -0.049946994 0.011257079
0.015234028 -0.049654722 0.011028007
0.01699687 -0.049331758 0.010986882
0.019033717 -0.049269017 0.011053084
0.021101441 -0.049239807 0.011010843
0.022595152 -0.04876671 0.010990556
-0.022494905 -0.046997618 0.010976112
-0.02191099 -0.047018711 0.011140035
0.021901341 -0.047100842 0.011021558
0.022652933 -0.046990912 0.010942342
-0.02248586 -0.045015998 0.010927318
-0.021892879 -0.044839792 0.011112934
0.021889746 -0.044947073 0.011225882
0.022652309 -0.044992097 0.010991312
-0.022480108 -0.043160859 0.010858276
-0.021579763 -0.042559318 0.011193503
0.021719096 -0.042736631 0.011272271
0.022604488 -0.043036643 0.010984167
-0.022197396 -0.041080762 0.01073194
-0.021546254 -0.04101469 0.010942414
0.021627778 -0.041093685 0.010927074
0.02219921 -0.041116547 0.010981067
-0.022469079 -0.038665976 0.010754731
-0.021654973 -0.039257929 0.011081319
0.021643654 -0.039409682 0.011144177
0.022555796 -0.038816333 0.010853124
-0.022508251 -0.036996469 0.010997438
-0.021888446 -0.037060354 0.01115042
0.021886073 -0.03710717 0.010734636
0.022655634 -0.036990523 0.011035779
-0.022474675 -0.034960844 0.01101593
-0.021869451 -0.034923654 0.011053509
0.021869382 -0.035120275 0.010738556
0.02265556 -0.034948032 0.011005502
-0.022474008 -0.033006169 0.010946606
-0.021933392 -0.032795411 0.011191732
0.02182783 -0.032856122 0.011117808
0.022605941 -0.032969203 0.011023489
-0.022476578 -0.031045124 0.011018166
-0.021926528 -0.030852204 0.011006545
0.021872658 -0.030995233 0.010952885
0.022609426 -0.030960511 0.010959268
-0.022477109 -0.029016599 0.011006552
-0.021917427 -0.029193422 0.010870207
0.021900313 -0.028955525 0.010896966
0.022565378 -0.029033432 0.010995271
-0.022471178 -0.026972136 0.01099168
-0.02191627 -0.027289838 0.0111921
0.021863196 -0.02694444 0.010798041
0.022637336 -0.027017498 0.010927917
-0.022453655 -0.024993189 0.011005826
-0.021921644 -0.02521666 0.011423082
0.021892779 -0.025035478 0.010808259
0.022609029 -0.025070539 0.011002663
-0.022449812 -0.023060173 0.010989859
-0.021925526 -0.023175532 0.010850742
0.021850986 -0.023067202 0.01131288
0.022591058 -0.023048976 0.011012858
-0.022496967 -0.021054452 0.010925312
-0.021946929 -0.020826604 0.010829588
0.021864943 -0.0210046 0.011223174
0.022617346 -0.021067319 0.010937441
-0.022438984 -0.01900869 0.010954816
-0.021674789 -0.01859872 0.01126613
0.021753622 -0.018841101 0.011362983
0.022593671 -0.019044884 0.010998714
-0.02234902 -0.017337319 0.010514541
-0.021508746 -0.016924459 0.011015264
0.021588825 -0.016909542 0.010987544
0.022455608 -0.017458666 0.010742342
-0.022399491 -0.014502062 0.01050221
-0.021591591 -0.015141808 0.011003589
0.021663701 -0.015176157 0.01104305
0.022461638 -0.014649217 0.010878048
-0.022425056 -0.012986481 0.010934002
-0.021871258 -0.01328275 0.010999542
0.021791726 -0.01311445 0.011162111
0.022579441 -0.013012511 0.011047851
-0.022456028 -0.011024278 0.010953981
-0.021971529 -0.01101853 0.010676655
0.021846989 -0.010736145 0.010978492
0.022595726 -0.01101538 0.011039531
-0.022410994 -0.0089641782 0.010931274
-0.021945776 -0.0093240738 0.011165561
0.02186144 -0.0090958737 0.010841022
0.022583976 -0.0089919753 0.01096181
-0.022443211 -0.0076472927 0.010984612
-0.021112598 -0.0076318691 0.010996987
-0.019080894 -0.0076342924 0.011111782
-0.017020062 -0.0076016509 0.010992591
-0.014944433 -0.0071146591 0.011020628
-0.013548871 -0.006441243 0.01100471
0.013558857 -0.0064059482 0.011004997
0.014982926 -0.0070999484 0.011044689
0.016961422 -0.0075910445 0.010972421
0.01907368 -0.0076457523 0.01105859
0.021107268 -0.0076206159 0.011010155
0.022485737 -0.0076774638 0.010937429
-0.012616706 -0.0050525735 0.010994751
-0.011009382 -0.0044646165 0.010984223
