# .PCD v0.7 - Point Cloud Data file format
VERSION 0.7
FIELDS x y z
SIZE 4 4 4
TYPE F F F
COUNT 1 1 1
WIDTH 140
HEIGHT 1
VIEWPOINT 0 0 0 1 0 0 0
POINTS 140
DATA ascii
0.0011167607 0.0011048359 -8.0328391e-05
0.0030618962 0.00084912113 -8.2649152e-05
0.0042611668 0.0016592168 -6.295144e-05
-6.6557252e-05 0.0021843859 -6.6361696e-05
0.0010773243 0.0029721765 -8.2908657e-05
0.0031513758 0.0031975678 -8.6049316e-05
0.0042620283 0.0024896117 -7.7096345e-05
0.0015693503 0.0040853517 -7.2524301e-05
0.0027744581 0.0040705446 -8.4154643e-05
0.0015708464 -9.9341072e-08 0.0011398994
0.0026645821 -1.1920929e-07 0.0011398993
-6.8857393e-05 0.0018818988 0.0011049379
0.00096754945 0.00089205627 0.00088516047
0.0031055033 0.00054642971 0.00084343966
0.0043027601 0.0014985873 0.00098355988
-0.00010877295 0.0021653054 0.00096248789
0.00079722452 0.0029966738 0.00082865078
0.0033668433 0.0033168069 0.00068527559
0.0043379441 0.0025898651 0.00097280095
0.0015035537 0.0041003106 0.0010360405
0.0028110147 0.0040994957 0.001014414
0.0015708464 -9.9341072e-08 0.0029627732
0.0026645821 -1.1920929e-07 0.002962773
-7.1167444e-05 0.0018876836 0.0031141909
0.00088450435 0.00081027747 0.0029953434
0.0031451238 0.0003688898 0.002987847
0.0043065432 0.0014940128 0.0029930389
-9.8035576e-05 0.0021842122 0.0029107144
0.00063257723 0.0030488095 0.0029891415
0.0036501889 0.0035360081 0.0029848944
0.0043388633 0.0026059903 0.0029825456
0.0015063735 0.0041002017 0.0029992016
0.0028006032 0.0041023931 0.0029978282
0.0014289505 -0.0043062074 0.0056327125
0.0030621467 -0.0043293643 0.005618406
0.0042054113 -0.0041672578 0.0057185381
0.0013472943 -0.0038431182 0.0059189191
0.0030621467 -0.0038431198 0.0059189214
0.0042054113 -0.0038430947 0.0059188819
0.0015708464 -9.9341072e-08 0.0049679349
0.0026645823 -1.1920929e-07 0.0049679354
-6.9636713e-05 0.0018866757 0.0050986181
0.00087410311 0.00080137793 0.0049977181
0.0031509243 0.00035966549 0.0049889768
0.0043033687 0.0015019485 0.0050055967
-0.00010620632 0.0021998524 0.0049610483
0.00061582919 0.0030510973 0.0049918559
0.0036863829 0.0035531048 0.0049915188
0.0043364847 0.0026032839 0.0049863593
0.0014844768 0.0040996037 0.004982471
0.0028076991 0.0041014957 0.0049844705
0.00099907303 -0.0028482701 0.0065337634
0.0030621474 -0.0028706307 0.0065199537
0.0045592445 -0.0028243053 0.0065485486
0.001167764 -0.00083324075 0.0073388088
0.0029130611 -0.00078117952 0.0073159551
0.0045864647 -0.0012498009 0.0075216494
-6.6070992e-05 0.0018824692 0.006990666
0.0008673009 0.00080050679 0.0069985036
0.0031454894 0.00035385301 0.0070032165
0.0043028789 0.001507358 0.0070067607
-9.0490546e-05 0.0022143431 0.006887502
0.00061565952 0.00307207 0.0069934526
0.003699861 0.0035540077 0.0070093512
0.0043331105 0.0026038939 0.0069857449
0.0015176486 0.0041036503 0.00699586
0.002801267 0.0041051866 0.0070053213
0.0014196904 -6.9405076e-05 0.0087643666
0.0027510095 -6.0381662e-05 0.0087922672
0.0045864638 -0.00027731183 0.0081226807
-6.4432832e-05 0.0018888597 0.0089546926
0.00087610807 0.00079922104 0.0089944964
0.0031491802 0.00037467389 0.0089970697
0.0042983741 0.0014883354 0.0089940457
-9.0330032e-05 0.0021861503 0.0089055039
0.00062142691 0.0030674324 0.0090110283
0.00367697 0.0035605645 0.0090256184
0.0043296604 0.0026037304 0.0090030022
0.0015125608 0.0041032434 0.0089998879
0.0028051508 0.0041030464 0.0089988345
0.0015708464 -9.9341072e-08 0.010983418
0.0026645819 -1.1920929e-07 0.01098342
-6.172571e-05 0.001890713 0.01105782
0.00087441853 0.00078746205 0.010999507
0.0031444333 0.00035993598 0.011009001
0.0042947601 0.0015112107 0.011002117
-8.0423524e-05 0.0021810576 0.010920343
0.00060703635 0.003070568 0.011011563
0.0036845424 0.0035592953 0.011003884
0.0043270141 0.0026041686 0.011000484
0.0015184851 0.0041047977 0.011013993
0.0027943302 0.0041067479 0.011018619
0.0015708464 -9.9341072e-08 0.012988579
0.0026645821 -1.1920929e-07 0.012988579
-6.9263646e-05 0.0019021694 0.013055267
0.00085776462 0.00079537043 0.01300144
0.0031527483 0.00036320911 0.012997638
0.0042989994 0.0015213954 0.012999695
-9.0875881e-05 0.0021748298 0.013074061
0.00060261379 0.0030667363 0.013003514
0.0036869373 0.0035502866 0.012998642
0.0043249428 0.0025980475 0.013000229
0.0014980577 0.0041001458 0.012985414
0.0027935281 0.0041031428 0.013003408
0.0015708464 -9.9341072e-08 0.014993742
0.0026645821 -1.1920929e-07 0.01499374
-5.8350655e-05 0.0019050742 0.015063887
0.00086343108 0.00078898889 0.015000729
0.0031508277 0.00037172309 0.014994686
0.0042935563 0.0015204629 0.015007836
-8.8323948e-05 0.0021708652 0.01497823
0.00059483974 0.0030621001 0.015011644
0.0036790711 0.003538111 0.015021055
0.0043234695 0.0025887741 0.015000274
0.001473872 0.0040978468 0.014965108
0.0027950541 0.0041035619 0.01499722
0.0015708464 -9.9341072e-08 0.016634328
0.0026645819 -1.1920929e-07 0.016634328
-7.1435185e-05 0.0019082323 0.016537324
0.0010629829 0.0010023678 0.016835868
0.0030465475 0.00077714171 0.016909467
0.0042662513 0.0015531799 0.016611326
-8.6620159e-05 0.0021602428 0.01653406
0.00098511786 0.002955639 0.016899021
0.0031759497 0.0031491308 0.017047197
0.0043187449 0.002545319 0.016626609
0.0015001307 0.0040972349 0.016540708
0.0027792149 0.0041012582 0.016561134
0.0015291208 0.0015078828 0.019018894
0.0027795481 0.0014036554 0.019035663
0.0015183754 0.0026270247 0.019006109
0.0028084407 0.0027600294 0.019036198
0.0015338957 0.0015050406 0.020999774
0.0027850431 0.0014045635 0.021007335
0.0015187644 0.002622124 0.020996952
0.0028186634 0.0027544992 0.021013971
0.0015775227 0.0015412476 0.022628393
0.0027088856 0.0014788926 0.022683963
0.0015673757 0.002574756 0.022643631
0.0027318373 0.0026581038 0.02269879
