# .PCD v0.7 - Point Cloud Data file format
VERSION 0.7
FIELDS x y z
SIZE 4 4 4
TYPE F F F
COUNT 1 1 1
WIDTH 1249
HEIGHT 1
VIEWPOINT 0 0 0 1 0 0 0
POINTS 1249
DATA ascii
0.0043778867 0.0025318889 0.014209163
0.00014710463 0.0026104357 0.014296724
0.00025431276 0.0026988592 0.014217324
0.00049318961 0.0026840854 0.014280307
0.0041080099 0.0026373146 0.0142907
0.00023945107 0.0027125599 0.014238799
0.00031584501 0.0027211369 0.014265417
0.00041457373 0.002703554 0.014265685
0.00057055702 0.0027414311 0.014215313
0.003986001 0.0027696751 0.014261297
0.0041853637 0.0027035233 0.014265626
0.0042875949 0.0027277425 0.014250157
0.00059413863 0.0028651583 0.014252991
0.00066392316 0.0028313496 0.014238521
0.0039914269 0.0028374959 0.014237543
0.0040132729 0.0028719453 0.014238324
0.00047375428 0.0029195845 0.014243688
0.0006606041 0.0029548565 0.014203545
0.0039632213 0.0029324188 0.014239137
0.0040756688 0.002960454 0.014299238
0.0043492671 0.0029545163 0.014204175
0.00036364215 0.0030303109 0.014233272
0.00045049179 0.0030233753 0.014292795
0.00055851985 0.0030654427 0.01428201
0.00061203667 0.0030160816 0.014273452
0.0038856675 0.0030711635 0.014291069
0.0039633359 0.0030130118 0.014258467
0.0040265592 0.0030491948 0.014272881
0.004245 0.003078864 0.014268761
0.00050580822 0.003176535 0.014233971
0.00066683895 0.0031217595 0.01429441
0.00074660825 0.0031113958 0.014288603
0.0038533804 0.0031113958 0.014288603
0.0040235976 0.0031992884 0.014229965
0.0038633381 0.0032349268 0.014256309
0.0041867476 0.0032118245 0.014269636
0.00062893186 0.0033413775 0.014225032
0.00077955064 0.0033349926 0.014264195
0.0037367516 0.0033547452 0.014260145
0.003817091 0.0033463463 0.01426048
0.0039418284 0.0033983449 0.014291675
0.0040423237 0.0033219806 0.014226336
0.0041202209 0.0033609348 0.014291635
0.00074484001 0.0034012781 0.01427181
0.00085164234 0.0034422684 0.014244404
0.00095688348 0.0034791753 0.014261387
0.0010772324 0.0034769408 0.014249178
0.0036445402 0.0034735873 0.014267205
0.0037600608 0.003443649 0.014283719
0.0007787025 0.0035829421 0.014231458
0.00082539709 0.0035152573 0.014251578
0.0010535159 0.0035670807 0.014277636
0.0035462384 0.0035464338 0.014270818
0.0036174387 0.0035568047 0.014277053
0.0037688264 0.0035596113 0.014206551
0.0038881327 0.0035111848 0.01420299
0.00078114914 0.003671915 0.014261706
0.00096598291 0.003678167 0.014256946
0.0036382941 0.0036507172 0.01426342
0.0037512698 0.0036724797 0.01422505
0.00091810222 0.0037016273 0.014206651
0.0012005924 0.003755033 0.014289232
0.0033860924 0.0037377819 0.014291906
0.0035652535 0.0037018831 0.014270184
0.003669058 0.0037264801 0.014217047
0.0037618591 0.0037639027 0.014288918
0.0011622132 0.0038328846 0.014246046
0.0034377752 0.0038328846 0.014245986
0.0035835349 0.0038803848 0.014278667
0.00099380163 0.0039642625 0.014276003
0.0011439819 0.0039662193 0.014262675
0.0012124768 0.0039364877 0.014264663
0.0015708266 0.0039838552 0.014264592
0.0019354282 0.0039837956 0.014264592
0.0022999702 0.0039838552 0.014264592
0.0026645719 0.0039838552 0.014264592
0.0030292033 0.0039838552 0.014264592
0.0033937453 0.0039840937 0.014264565
0.0034560063 0.0039662193 0.014262646
0.0035595812 0.0039481423 0.014279196
0.003664009 0.0039010542 0.014298819
0.0037427866 0.0039312602 0.014256324
0.0011317964 0.0040650358 0.014251701
0.0012986703 0.0040785703 0.01421457
0.0013571755 0.00404156 0.014272873
0.0014361932 0.0040792897 0.014238982
0.0016543361 0.0040575615 0.014251693
0.0017770414 0.0040372396 0.014284938
0.0018665263 0.0040798271 0.014263331
0.002043867 0.0040555252 0.014265483
0.0021505852 0.0040379679 0.014260741
0.0022697514 0.0040814593 0.014269789
0.0023302448 0.0040815431 0.014269792
0.0024494473 0.0040379101 0.014260719
0.0025561731 0.0040554977 0.014265431
0.002733462 0.0040798271 0.014263301
0.0028229768 0.00403718 0.014284908
0.0029456522 0.0040574926 0.014251672
0.0031637952 0.0040792897 0.014238982
0.0032428508 0.004041574 0.014272874
0.003304654 0.0040322887 0.014276039
0.0034756998 0.0040594512 0.014256311
0.0036397642 0.004053189 0.014294705
0.00097537093 0.0041186386 0.014217553
0.0010271808 0.0041422732 0.014231483
0.001109365 0.004162699 0.014286898
0.0012866812 0.00412837 0.014241978
0.0013660742 0.0041552368 0.014278419
0.0015523462 0.0041391971 0.014266255
0.0016361248 0.0041269087 0.014255096
0.0017282927 0.0041196803 0.014246818
0.0018409793 0.004143659 0.014250956
0.0019616245 0.0041364152 0.014259322
0.0021215042 0.004125624 0.014279794
0.002250459 0.0041184956 0.0142973
0.0023248622 0.0041276268 0.014278261
0.002478482 0.0041256947 0.014279682
0.0026384054 0.0041364264 0.014259415
0.0027589581 0.0041438174 0.014250767
0.0028716335 0.0041198619 0.014246572
0.0029638847 0.0041268789 0.014255136
0.0030477359 0.0041393274 0.014266255
0.0032338668 0.00415524 0.01427863
0.0033430785 0.0041237841 0.014208454
0.0034743503 0.0041539893 0.01422003
0.0036437188 0.004190777 0.014284986
0.0011867094 5.4404376e-05 0.014326485
0.0012588559 8.9421912e-05 0.014321023
0.0013703485 7.2129536e-05 0.014342669
0.0016485368 7.3853043e-05 0.014358295
0.0017303932 9.6843345e-05 0.014337718
0.0019692553 7.2093244e-05 0.014343312
0.0021836115 9.5791489e-05 0.0143137
0.0022999702 8.9421912e-05 0.014321023
0.002416261 9.5586278e-05 0.014313668
0.0026307993 7.2035094e-05 0.014343305
0.0028695359 9.678374e-05 0.014337777
0.0029513824 7.3636707e-05 0.014358222
0.0032296856 7.2187831e-05 0.014342697
0.00089831545 0.00014615973 0.014315994
0.00095446408 0.00012047909 0.014321365
0.0011582971 0.00015936323 0.014346896
0.0012449194 0.00014375558 0.014353629
0.0014663283 0.00017338332 0.014335177
0.0015132161 0.00015619044 0.014359549
0.0016482517 0.00015320534 0.014340512
0.0017459252 0.00014781252 0.01432321
0.0018823307 0.00016291492 0.014323737
0.0019615947 0.00016205847 0.014349794
0.0020273242 0.00013217152 0.014348085
0.0021439439 0.00015926486 0.014362752
0.0022636803 0.00017806608 0.014333976
0.0023363144 0.00017252288 0.014347127
0.0024560958 0.00015923401 0.014362752
0.0025728128 0.00013224964 0.014348023
0.0026384352 0.00016205847 0.014349794
0.0027177143 0.00016295523 0.014323635
0.0028544767 0.00014778384 0.014323441
0.0029516642 0.00015316185 0.014340507
0.0030865641 0.00015617735 0.014359531
0.0031336169 0.00017336375 0.014335085
0.0033143912 0.00016972894 0.014374737
0.0034396327 0.00014831468 0.014351208
0.0035209118 0.00017312207 0.014323389
0.00096709869 0.00024386018 0.014346011
0.001174072 0.00021411749 0.014313184
0.0012740856 0.00022053176 0.0143579
0.0013767201 0.00020676227 0.014336945
0.0032233065 0.00020680066 0.014337296
0.003353206 0.00021938473 0.014343439
0.0035396002 0.00029511302 0.014337288
0.0008807471 0.0003287771 0.014373358
0.0037127438 0.00035602899 0.014308179
0.0038715326 0.00035102642 0.014373194
0.0010507882 0.00046038651 0.014347951
0.001126587 0.00041647046 0.014355879
0.0036997728 0.0004276438 0.014300629
0.00096154213 0.00051190448 0.014334946
0.0010173726 0.00055267423 0.014325673
0.0036480906 0.00054445071 0.014319849
0.00074857572 0.00062775338 0.014329546
0.0010712503 0.00066507777 0.014390011
0.0036754888 0.00062030886 0.014399717
0.0038262533 0.00061478541 0.014367675
0.0039382633 0.00066463684 0.014389163
0.00095708581 0.00073148741 0.01430752
0.003667722 0.00076852238 0.014346296
0.0037151831 0.00071114668 0.014384152
0.0038051996 0.00079340226 0.014331471
0.00055610086 0.00086358201 0.014335121
0.00072612683 0.00088518823 0.014309092
0.00094935077 0.00082343491 0.014348651
0.0037094711 0.00084518874 0.014332396
0.0038558245 0.0008872943 0.014311581
0.00044264446 0.00093839772 0.014338885
0.00073286227 0.00095196092 0.014370768
0.0037884174 0.00090759993 0.014362346
0.003817718 0.00098012225 0.01430486
0.0039269002 0.0009452352 0.014310072
0.0040638424 0.00090170384 0.014341552
0.0041542123 0.00096901413 0.014315366
0.00052359112 0.0010515868 0.014351081
0.00064756698 0.0010952345 0.014312705
0.0039740577 0.0010158127 0.014344148
0.0041272538 0.001093765 0.014360738
0.00041141576 0.0011505327 0.01437459
0.00056668289 0.0011077414 0.014372629
0.00064870197 0.0011536747 0.014311436
0.0041369954 0.0011640908 0.014345953
0.0042241593 0.0011007946 0.01430851
0.00033736072 0.0012698737 0.014390216
0.00040916554 0.0012984832 0.01436173
0.00059917744 0.0012799115 0.014361887
0.00072410045 0.0012983027 0.014360239
0.0040010107 0.0012800421 0.014361887
0.0041207019 0.0012299061 0.01435422
0.0042022085 0.0012981555 0.014309777
0.00022143955 0.001356183 0.014370766
0.00066188583 0.0013544117 0.014369069
0.0040074238 0.0013674485 0.014368612
0.0041190959 0.0013504808 0.014368438
0.00017423008 0.0014211559 0.014336096
0.00022829196 0.0014346713 0.014355264
0.004062383 0.001454792 0.014357892
0.0043339632 0.0014656363 0.014341038
0.004409858 0.0014542619 0.014376631
0.0003272068 0.0015818127 0.014313081
0.0042149075 0.0015054707 0.014345236
9.2096343e-05 0.0016953243 0.014385729
0.00016754404 0.0016506497 0.014388693
0.00044257467 0.0016465744 0.014337234
0.0042089848 0.0016453399 0.014371075
0.0045156814 0.0016835824 0.014386399
0.0045551518 0.0017863195 0.014351881
0.004613772 0.0017040723 0.014325705
-7.2795992e-05 0.0018805473 0.014362314
4.2389496e-05 0.0018526491 0.01437254
0.00016151725 0.0018389821 0.014381379
0.0045939102 0.001811669 0.014350694
0.0046831248 0.0018812756 0.014392673
0.00016330858 0.0019918587 0.014374879
0.0043784725 0.0019691153 0.014339706
0.0044657257 0.0019952927 0.014381452
0.0045545995 0.0019804444 0.014362644
0.0046294965 0.0019674096 0.014398751
-0.00012081446 0.0020346323 0.014379358
0.00014548126 0.0020022469 0.014313458
0.0043904483 0.0020334087 0.014356068
0.0046372074 0.0020190559 0.014336701
-0.00013811438 0.0021339718 0.014381975
-1.3662969e-05 0.0021678982 0.014314753
0.00014719853 0.0021268616 0.014357874
0.0045353631 0.0021078694 0.014394941
0.0046948353 0.0021515382 0.014318531
0.004791134 0.0021211873 0.014359712
0.0048045777 0.0021900651 0.014363427
-8.2127524e-05 0.0022994087 0.014311472
0.00024291129 0.0022072331 0.01435232
0.0043381639 0.0022338126 0.014359397
0.0044272095 0.0022877941 0.014391323
0.0045455121 0.0022144914 0.014323115
0.0046722814 0.0022940817 0.014387205
0.00016330858 0.0023677619 0.014374879
0.00033962808 0.0023716376 0.014336679
0.0041965954 0.0023241395 0.014318435
0.0042765671 0.002376813 0.014331936
0.0043439195 0.0023688448 0.014312458
0.0045508775 0.0023510801 0.014352726
-1.8807106e-05 0.0024416854 0.014329234
6.4900458e-05 0.0024002439 0.014318161
0.00028261752 0.0024534599 0.014369026
0.0042583128 0.0024248778 0.014392018
0.004446662 0.0024488769 0.014314028
0.0045890105 0.002436127 0.014369108
5.8386584e-05 0.0025621334 0.014303423
0.00017591953 0.0025297056 0.014302026
0.0002967593 0.0025095737 0.014317217
0.0043600872 0.0025354729 0.014395408
0.0044259839 0.0025656731 0.014342804
0.00014726291 0.0026664464 0.014398829
0.00040345467 0.0026869355 0.01431634
0.00053857389 0.0026709356 0.014353692
0.0040775621 0.0026604994 0.014349455
0.0041473345 0.002638404 0.014303322
0.0042087818 0.0026848991 0.014370949
0.0002237102 0.0027202296 0.014337096
0.00034953849 0.0027778272 0.014397413
0.00044759613 0.0027397168 0.01431754
0.00053602608 0.0027456754 0.01431021
0.00064941734 0.0027300958 0.014376333
0.0040677004 0.0027471234 0.014325798
0.0041092285 0.002743043 0.014377674
0.00048103565 0.0028000572 0.014344757
0.00067865674 0.0028495628 0.014341375
0.00405333 0.0028973853 0.014324811
0.0041954364 0.0028480161 0.014336891
0.0004196355 0.0029599555 0.014393488
0.0040432462 0.0029232246 0.014337515
0.00040806609 0.0030271553 0.014361808
0.00081158266 0.0030758977 0.014362375
0.0037856873 0.0030407666 0.01430497
0.0039355396 0.0030438057 0.014312384
0.0041768448 0.0030491964 0.014362117
0.00047048819 0.003101964 0.014310766
0.00057148613 0.0031011961 0.014337067
0.00079812156 0.0031224482 0.014315396
0.00086937251 0.0031882753 0.01432671
0.0037391409 0.0031897309 0.014386163
0.0038018792 0.003122451 0.014315366
0.0041409205 0.0031589842 0.014332811
0.0005623285 0.0032683681 0.014319304
0.0039117401 0.0032824068 0.014331027
0.00052637578 0.0033616947 0.014310434
0.00084271439 0.0033599115 0.014383474
0.0036638607 0.003330841 0.014383294
0.0037643176 0.0033136762 0.014383751
0.0040577999 0.0033450103 0.014301238
0.00059702242 0.0034625304 0.014314827
0.00060209376 0.0034085817 0.01430382
0.00075089349 0.0034816887 0.014348585
0.0036624894 0.0034087952 0.014374126
0.0038746947 0.0034681563 0.014308585
0.00090409012 0.0035317745 0.014304893
0.003676788 0.0035230671 0.014372448
0.0038970816 0.0035495136 0.014375652
0.00075180229 0.0036732489 0.014313193
0.0010002633 0.0036463817 0.014348793
0.003512905 0.0036578709 0.014321591
0.0038491106 0.0036561093 0.014369618
0.00079750433 0.003785677 0.014323758
0.000871678 0.0037957639 0.014303287
0.0009164199 0.003797269 0.014309383
0.0011870154 0.0037345453 0.014340702
0.0036105714 0.0037093097 0.014344151
0.00096085039 0.0038413908 0.014350426
0.001117103 0.0038212389 0.01433185
0.0036385059 0.0038418011 0.014334976
0.00090935174 0.0039431052 0.014356043
0.0010510074 0.0039062104 0.014348049
0.0011193317 0.0039737402 0.014370014
0.0033392368 0.0039653522 0.014356966
0.0037635013 0.0039381813 0.014375599
0.00094761583 0.0040668738 0.014346583
0.0010016019 0.004037715 0.014309316
0.0011712065 0.0040383548 0.014346174
0.0013340734 0.0040792064 0.014376653
0.0014154799 0.0040815794 0.014337718
0.0015615441 0.0040862095 0.014306842
0.0016661154 0.0040727914 0.014312957
0.0017259638 0.0040597008 0.014338503
0.0018594206 0.0040810402 0.014312654
0.0019678238 0.004038637 0.01438529
0.0020488459 0.0040697819 0.014348742
0.0025511673 0.0040697819 0.014348749
0.0026321704 0.0040385802 0.014385274
0.0027405364 0.0040810909 0.014312684
0.0028739884 0.004059975 0.01433838
0.0029339292 0.0040729619 0.014313002
0.0030385801 0.0040862095 0.01430689
0.0031845085 0.0040815794 0.014337777
0.0032659888 0.0040792064 0.014376642
0.00335288 0.0040359441 0.014389473
0.0034356413 0.0040700389 0.01437572
0.0035984339 0.0040375981 0.014309346
0.0037126462 0.0040366584 0.014308398
0.00098176685 0.0041138539 0.014369289
0.0011746169 0.0041368743 0.014362606
0.0012466325 0.0041228966 0.014367076
0.0013592718 0.004190777 0.014398754
0.0015930131 0.0041138539 0.014304612
0.0016570403 0.004139334 0.014340639
0.0017464561 0.0041299337 0.014359379
0.001817164 0.0041614179 0.014306542
0.0019586449 0.0041250894 0.014314136
0.0020927372 0.0041286647 0.014365415
0.0022688073 0.0041204914 0.014367389
0.0023311914 0.004120518 0.014367428
0.0025071688 0.0041283006 0.014365882
0.0026412965 0.0041250116 0.014314145
0.0027829548 0.0041615041 0.01430635
0.0028535591 0.0041299253 0.014359307
0.0029428112 0.0041392939 0.014340548
0.0030069507 0.0041138134 0.014304586
0.003269793 0.004154705 0.014354158
0.0033614999 0.0041155405 0.014352115
0.003402425 0.004155227 0.01438704
0.0012115892 8.0583406e-05 0.014434025
0.0013974848 8.9249603e-05 0.014459809
0.0018248798 7.464485e-05 0.014406992
0.0020561786 5.8045902e-05 0.014410152
0.0022964403 8.9828791e-05 0.014418346
0.0023035037 8.9986315e-05 0.014418305
0.0025438247 5.7986297e-05 0.014410122
0.0027751443 7.4674652e-05 0.014406987
0.0032025597 8.9198089e-05 0.014459824
0.0033828679 7.6869888e-05 0.014441205
0.0009364846 0.00015255804 0.014410066
0.0010892519 0.00019360508 0.014408704
0.0012830867 0.00013413944 0.014425311
0.0014180536 0.00015512494 0.014447681
0.0015307545 0.00013523543 0.014442499
0.0016433178 0.00014801664 0.014451904
0.0017517642 0.00012154391 0.014462288
0.0018210466 0.00014106368 0.014451057
0.0019701868 0.00016349721 0.014450508
0.002032995 0.00014904454 0.014431774
0.0021681993 0.00012857854 0.014440136
0.0023000001 0.00014387994 0.014445911
0.0024316951 0.00012865989 0.014440036
0.0025668873 0.00014900044 0.014431722
0.002629868 0.00016344502 0.01445029
0.0027787217 0.00014129412 0.014451221
0.0028481013 0.00012155055 0.014462403
0.0029566758 0.00014797327 0.014451947
0.0030692928 0.00013521557 0.014442456
0.0031818645 0.00015509724 0.014447672
0.0033399933 0.00017133995 0.014494391
0.0034050622 0.00015978531 0.014424715
0.00094145379 0.00025615413 0.014426525
0.0010131432 0.00026520429 0.014461365
0.0012290766 0.00020543176 0.014490474
0.0017797508 0.00020676227 0.014450721
0.0028202438 0.0002067825 0.014450958
0.0033165193 0.00024081678 0.014480917
0.0034121887 0.0002269393 0.014445016
0.0036268632 0.00026954216 0.014486725
0.0037159198 0.00022053176 0.014439331
0.000737725 0.0003557603 0.014409066
0.00084939343 0.00038453599 0.014443857
0.001245446 0.00036211318 0.014499021
0.003431533 0.00031240837 0.014420305
0.003544511 0.0003045176 0.014482382
0.0037712606 0.00039946026 0.014450166
0.00073526963 0.00047066074 0.014454629
0.0034426115 0.00041717797 0.014416276
0.0038457392 0.00048609829 0.014465243
0.00087602017 0.0005489107 0.014470901
0.001041382 0.00057133811 0.014451946
0.0011269689 0.00052156922 0.014433382
0.0035884385 0.00057272473 0.014444139
0.0036081793 0.00055861264 0.014418338
0.0037041893 0.00058056042 0.014462934
0.00092310982 0.00067110296 0.014450263
0.0038159515 0.00063732686 0.014411558
0.004042123 0.00078602153 0.014436046
0.00049157668 0.0008577797 0.0144399
0.00063023728 0.00087428943 0.014478795
0.00083299901 0.00083530886 0.014481585
0.00095149002 0.00084493984 0.014415979
0.0036920758 0.00085488189 0.014456403
0.0039349361 0.00080995529 0.014439917
0.0040185293 0.00082222652 0.014459415
0.00056805892 0.00095668365 0.014461373
0.00066756981 0.00092354347 0.014493223
0.00084428809 0.00094648649 0.014488362
0.0037275853 0.0009398238 0.014477806
0.0038193893 0.00092139945 0.014462695
0.00033154018 0.0010542508 0.014423813
0.00047557033 0.0010653618 0.014428172
0.00083924271 0.0010457741 0.014418959
0.00036027329 0.0011558189 0.014457273
0.00046592604 0.001143874 0.014448184
0.004165615 0.0011326974 0.014472625
0.0042103925 0.0011539489 0.014429557
0.00043822799 0.0012067358 0.014448935
0.00051025866 0.0012641865 0.014441254
0.00066710415 0.0012094326 0.014494597
0.0039799539 0.0012927278 0.014454559
0.0043323371 0.0012900201 0.01449482
0.00034474116 0.0013612906 0.014431779
0.00046955099 0.0013232297 0.014497987
0.0040396876 0.001399455 0.014468772
0.0041815764 0.0013089922 0.014483259
0.0043272679 0.0013187631 0.014451871
0.0044046305 0.0013429472 0.014413772
0.00015989528 0.001497905 0.014405573
0.00023376189 0.001487897 0.014464992
0.0040696687 0.0014791598 0.014414223
0.0043704542 0.0014625443 0.01441947
0.0002426618 0.001521619 0.014455293
0.00033087502 0.001556063 0.014466922
0.00051113346 0.0015025042 0.014414772
0.0042804824 0.0015685104 0.014464235
2.8015256e-05 0.0016318534 0.014452213
0.00024752904 0.0016356556 0.014469843
0.0003825418 0.001613987 0.014470802
0.00042439281 0.0016999833 0.014458204
0.0041685468 0.0016433621 0.014452437
0.0042388616 0.0016404836 0.014431417
0.0043506417 0.0016273665 0.014431451
0.0044418001 0.0016808815 0.014454818
-8.6187305e-05 0.0017725094 0.014438939
4.2657168e-05 0.0017592805 0.0144503
0.0004290106 0.0017971216 0.014459349
0.0042970022 0.001708332 0.014456543
-4.3669414e-05 0.0018616379 0.014488764
0.00018984954 0.0018570963 0.014441654
0.0042128903 0.0018015745 0.014470754
0.004526786 0.0018313034 0.014451615
0.0046863449 0.0018999259 0.014495488
-2.4367891e-05 0.0019636587 0.014475136
8.7651279e-05 0.0019839581 0.014412975
0.00019615925 0.0019674846 0.014444248
0.00021141578 0.0019118997 0.014469795
0.0043469146 0.0019633495 0.014480722
0.0044486769 0.0019640562 0.014443254
0.004590326 0.0019918585 0.014470189
-6.943375e-05 0.0020549353 0.014412255
0.00011159722 0.0020633426 0.014436721
0.0043864744 0.0020308699 0.014454969
9.7984484e-05 0.0021654447 0.014441188
0.00010709283 0.0021522157 0.014446022
0.0043969657 0.0021339718 0.014453264
0.00019399734 0.0022925283 0.014478881
0.00025369672 0.0022313946 0.014423998
0.0046346625 0.0022103812 0.014493949
0.0047873333 0.0022026361 0.014424512
9.7939228e-05 0.002373415 0.0144284
0.00016497527 0.0023326015 0.014427623
0.0003125678 0.0023687519 0.014445891
0.00041056261 0.0023754835 0.0144378
0.0042604539 0.0023610319 0.014472073
0.0043084687 0.0023593619 0.014436928
0.0044250055 0.0023373337 0.014462824
0.0045771915 0.0023685612 0.014438492
4.715841e-05 0.0024128167 0.014493033
0.00033838899 0.0024725518 0.014448915
0.0042829118 0.0024424887 0.014443026
0.0043309121 0.0024468312 0.014454795
0.00015921095 0.0025584553 0.014480633
0.00022526104 0.002501291 0.014467272
0.0041244109 0.0025295001 0.014487118
0.00013125913 0.0026241238 0.014430538
0.00022475679 0.0026662578 0.014470055
0.00035555765 0.0026928606 0.014449649
0.00053929002 0.0026842526 0.014469826
0.0041647735 0.0026433656 0.014439378
0.0042223809 0.0026132844 0.014418326
0.0043595382 0.0026746795 0.014496938
0.0044501578 0.0026840854 0.014492455
0.00028999703 0.0027447951 0.01442589
0.00038319832 0.0027733373 0.014444791
0.00050577003 0.0027036183 0.01447589
0.0041432572 0.0027567886 0.014456345
0.0042743441 0.0027005805 0.014456668
0.0043469085 0.0027436153 0.014425321
0.0044358056 0.0027525593 0.014453875
0.00022029772 0.0028094631 0.014411943
0.00039822844 0.0028012325 0.014402194
0.0005541732 0.0028742913 0.014455954
0.0041727275 0.0028445926 0.014448158
0.0042236964 0.0028336875 0.014486764
0.0043018525 0.0028248809 0.014498518
0.00071982131 0.00299818 0.014454396
0.0042751189 0.002998471 0.014454187
0.0043868525 0.0029208357 0.014425353
0.0005026586 0.0030936962 0.014423726
0.00067377312 0.0030036762 0.014458137
0.00072951487 0.0030159464 0.014478563
0.0039704512 0.0030500554 0.014465197
0.0040831771 0.0030321272 0.014499118
0.00066730694 0.0031655044 0.014494723
0.00077780301 0.0031831115 0.014422557
0.0038409124 0.0031019286 0.014494357
0.0040132664 0.0031632686 0.01446445
0.00049085187 0.0032182261 0.0144114
0.00086795812 0.003252865 0.014447763
0.0040845955 0.0032820324 0.014401627
0.00049648969 0.0033139777 0.014454926
0.00054103654 0.0033598023 0.014437742
0.00060504838 0.0033811736 0.014451567
0.00078213826 0.0033503962 0.014412226
0.0036777412 0.0033722459 0.014447455
0.0037330762 0.003318572 0.014424749
0.00058571441 0.0034045479 0.01440497
0.00066756981 0.0034162789 0.014493223
0.00076030078 0.0034165483 0.01444539
0.0036836308 0.0034335544 0.014451309
0.0038388441 0.0034482817 0.014454426
0.0039984849 0.0034656138 0.014447284
0.00063268602 0.0035287915 0.014472505
0.0010729317 0.0035423564 0.014414103
0.0036534129 0.0035003349 0.014456428
0.0038180216 0.0035388293 0.014400816
0.00083246734 0.0036843957 0.014409074
0.0008514006 0.0037666538 0.014446139
0.00091359986 0.0037148094 0.014489383
0.0011539712 0.0037527452 0.014407134
0.0012335181 0.0037492493 0.014497528
0.0034412569 0.0037956533 0.014485792
0.0035974346 0.0037443405 0.014447236
0.0036257876 0.003743964 0.014458308
0.0037591849 0.0037473054 0.014425525
0.0038589595 0.0037136152 0.014403772
0.0011951191 0.0038235765 0.014425176
0.0034807848 0.0038970436 0.014462076
0.0037063595 0.0038309379 0.014473904
0.00095094449 0.0039738854 0.014441241
0.00093515043 0.0040348065 0.014423463
0.0010237105 0.0040673818 0.014450982
0.0011121058 0.004048029 0.014482281
0.0012641803 0.0040797512 0.014450999
0.0013062484 0.0040723267 0.014488848
0.0014889699 0.0040746322 0.014406092
0.0016505795 0.0040792953 0.014429564
0.0018313482 0.0040386212 0.014424542
0.0019315546 0.0040760231 0.01444133
0.0020911256 0.0040857974 0.01446885
0.0022001066 0.0040733637 0.014447827
0.002349976 0.0040733581 0.014429694
0.0025089041 0.0040858453 0.014468879
0.0026684511 0.0040759682 0.014441282
0.0027686809 0.0040386212 0.014424556
0.002949463 0.0040792162 0.014429517
0.0031111664 0.0040743062 0.014406031
0.0032820585 0.0040563005 0.014489134
0.0033408506 0.0040556057 0.014484932
0.0034290096 0.004042659 0.014448802
0.0010895062 0.004149775 0.01440872
0.0011396024 0.0041168849 0.01446039
0.0012655284 0.0041088583 0.014495411
0.0013029908 0.0041430988 0.01440416
0.0014898248 0.0041488241 0.01442973
0.0015272755 0.0041623092 0.014439057
0.001653817 0.0041441768 0.01440845
0.0017508105 0.0041354387 0.014426667
0.0019386174 0.0041077714 0.014455266
0.0020777727 0.004140107 0.014464208
0.00217776 0.0041447333 0.014425755
0.0024224455 0.0041447622 0.014425804
0.0025220795 0.004140221 0.014464282
0.0026613809 0.0041079414 0.014455378
0.0028491362 0.0041353442 0.014426791
0.0029461416 0.0041441768 0.01440845
0.0030727426 0.00416234 0.014438969
0.0031100479 0.0041488912 0.014429679
0.0033048138 0.0041475869 0.014400058
0.0034603642 0.0041169701 0.014460372
0.0036364319 0.0041124132 0.014492243
0.0012767306 9.4222596e-05 0.014502389
0.001493851 5.4404376e-05 0.01450194
0.0015027634 5.4668355e-05 0.014581359
0.0017453579 7.4172072e-05 0.014575899
0.0018036511 9.5527059e-05 0.014552318
0.001930202 8.952339e-05 0.014595375
0.0020189309 5.8340866e-05 0.014582806
0.0022934673 5.4707885e-05 0.014541516
0.0023065766 5.4648281e-05 0.014541501
0.0025810043 5.8069229e-05 0.014582717
0.0026698567 8.9471934e-05 0.014595364
0.0027962322 9.5331205e-05 0.014552278
0.0028546161 7.403826e-05 0.014575938
0.0030972292 5.472796e-05 0.014581344
0.0031061841 5.4401466e-05 0.01450191
0.0033232183 9.4274052e-05 0.014502326
0.0034373759 5.8097499e-05 0.014568533
0.0010244763 0.00016183648 0.014564406
0.0011206834 0.00013708224 0.014539158
0.001233395 0.00012695292 0.014505697
0.0013748292 0.00013991624 0.014535388
0.001584691 0.00018317712 0.014565118
0.0016551317 0.00014690706 0.014577265
0.0017100058 0.00010273619 0.014547047
0.0019569418 0.00011944125 0.014530009
0.002071175 0.00012208211 0.014531094
0.0021303096 0.00018400642 0.014528898
0.002246402 0.00015625473 0.014528618
0.0023531972 0.00015602336 0.014528767
0.0024707564 0.00018376225 0.014528641
0.0025288083 0.00012200848 0.01453096
0.0026430904 0.00011940593 0.014530042
0.0028900886 0.00010273619 0.014547154
0.0029447877 0.00014676618 0.01457708
0.0030154162 0.00018301011 0.014564799
0.003225052 0.00013977308 0.014535564
0.0033484693 0.00010112969 0.014503616
0.0034869765 0.00019315734 0.0145405
0.0035539719 0.00015448609 0.014547965
0.0036375897 0.00016305997 0.014518587
0.00095898594 0.00023180249 0.014557889
0.0010333702 0.00023870604 0.01455607
0.0011365475 0.00023528842 0.014576986
0.0012472451 0.0002780889 0.014503628
0.0021828208 0.00020672366 0.014564138
0.0024171483 0.00020676227 0.014564504
0.0033716022 0.00024212357 0.014570106
0.0034525779 0.00021217712 0.014562468
0.003547146 0.00028738382 0.014533811
0.0037543988 0.00021411749 0.014516179
0.00081168051 0.00030529633 0.014559071
0.00090417481 0.00039239469 0.014556348
0.0011488261 0.00033631874 0.014566042
0.0035536774 0.00035616869 0.014585244
0.00077246001 0.00043631686 0.014535331
0.00112406 0.00048562069 0.014567644
0.0035560769 0.000427044 0.014500602
0.0037375723 0.00047269824 0.014598471
0.0038643042 0.00047876796 0.014565457
0.0008178727 0.00057012477 0.014525823
0.0011218525 0.00058579928 0.014543754
0.0035251363 0.00054138381 0.014538891
0.0036852993 0.00051648251 0.014547516
0.0037207105 0.00058765826 0.014599022
0.0038663561 0.00052167848 0.014543644
0.00071943313 0.0006080392 0.014506411
0.00083645317 0.00063614384 0.014544183
0.0036306421 0.00065728469 0.014581385
0.0037642743 0.00063593418 0.014535597
0.0039916211 0.00063030829 0.014587872
0.00086042751 0.00071162463 0.01457892
0.0010069222 0.00075841421 0.014544716
0.003737208 0.00074020919 0.014581296
0.0039181188 0.00073151325 0.01459585
0.00053734781 0.00083987485 0.014547196
0.00060821162 0.00080696895 0.014555177
0.00075433729 0.00084407302 0.014581003
0.00081926736 0.00083148235 0.014553979
0.0036651294 0.00084520341 0.014576685
0.0038692227 0.00086644816 0.014588944
0.0039456999 0.00081443693 0.014528123
0.00066233287 0.00095878943 0.014544841
0.0037704923 0.00097520318 0.014586169
0.0038405601 0.00096850848 0.014535053
0.0039538788 0.00096417492 0.014524087
0.0040102196 0.00097405474 0.014534323
0.0041971901 0.00098520261 0.014501248
0.00076288066 0.0010147924 0.014544319
0.0038411405 0.0010393509 0.014592629
0.0042664739 0.0010974508 0.014518717
0.0043029562 0.0010927384 0.014501723
0.00048441629 0.0011567512 0.014572473
0.00056140212 0.0011872639 0.014553594
0.0039398763 0.001157447 0.014577324
0.00045307403 0.0012711834 0.014539612
0.00060371769 0.0012321416 0.014567506
0.0040353294 0.0012813779 0.014513796
0.0041063512 0.0012534984 0.014530153
0.00060815807 0.0013730209 0.014507992
0.0042455448 0.0013405452 0.014573269
0.0043429215 0.0013901927 0.014509756
0.00019197633 0.0014401498 0.014560562
0.00046975835 0.0014963304 0.014535402
0.004135746 0.0014207147 0.014503521
0.00017688837 0.0015478437 0.01452329
0.00026205639 0.001578907 0.014563925
0.0005403565 0.0015768496 0.014546154
0.0040694983 0.0015071951 0.014553138
0.0042431164 0.0015591508 0.014531863
0.0043256581 0.0015842996 0.014568324
2.6163467e-05 0.001661283 0.014544337
0.00013721114 0.0016742307 0.014525391
0.00025381768 0.001639232 0.01457616
0.00035355048 0.0016697508 0.01454597
0.00042333108 0.0016900561 0.014538294
0.004163946 0.0016545645 0.014573068
0.0042213374 0.0016630172 0.014551904
6.0596085e-05 0.0017876104 0.014530146
0.00030471868 0.0017280267 0.014556283
0.0045732758 0.0017001306 0.014541428
7.8219891e-05 0.0018971999 0.014583548
0.00029050515 0.0018347093 0.014598946
0.00031305623 0.0018603586 0.014572155
0.0044479473 0.0018472105 0.014506064
-9.7885068e-06 0.0019757033 0.014591791
2.5690102e-05 0.0019620296 0.014553987
0.00031324846 0.0019670199 0.014594351
0.0044473535 0.0019460083 0.014570686
-0.00014473507 0.0020573612 0.014562559
-4.995973e-05 0.002056059 0.014591539
6.0418897e-05 0.0020918082 0.014584436
0.00027427744 0.0020291237 0.014538349
0.0043510203 0.0020548219 0.014594109
0.0044728564 0.0020435946 0.014558898
0.0047908989 0.0020022469 0.01452134
-0.00016157236 0.0021579457 0.014533077
-7.1239032e-05 0.002164044 0.014530016
0.00015349369 0.0021605741 0.014553595
0.00023558445 0.0021804248 0.014548904
0.0044412436 0.0021490343 0.014553295
0.0046164463 0.0021509046 0.01457001
0.0048055155 0.0021365245 0.01455684
-0.00011357083 0.0022410443 0.014519239
-3.4203549e-05 0.0022356126 0.014599686
4.4616514e-05 0.0022452592 0.014530204
0.00029767142 0.0022633935 0.014506179
0.00033496611 0.0022547697 0.014570311
0.0043687876 0.0022411807 0.014519433
0.0044570416 0.0022991779 0.014573415
0.0045655407 0.0022564728 0.014596323
0.0047224979 0.0022473941 0.014520414
-1.7048923e-06 0.0023512125 0.014531721
3.0484798e-05 0.0023581823 0.014544272
0.0044362722 0.0023670928 0.014560359
0.0045820293 0.0023959342 0.014509409
0.00015135451 0.0024488033 0.014563499
0.00023021348 0.0024975103 0.014529768
0.00034085481 0.0024258115 0.014581207
0.0042450153 0.0024003959 0.014502972
0.0043785209 0.0024164615 0.014565891
0.00021776804 0.0025116522 0.014545086
0.00452703 0.0025150327 0.014507995
0.00014973816 0.0026870188 0.014554227
0.00024044394 0.0026939139 0.014587051
0.00039088327 0.0026330557 0.014597821
0.0040741619 0.0026874121 0.014503445
0.0041638282 0.0026664499 0.014572931
0.0042422907 0.0026988592 0.01455529
0.00021346798 0.0027444419 0.01451084
0.00035692219 0.0027493984 0.014548636
0.00052440021 0.0027946199 0.014521432
0.0039365762 0.0027781187 0.014576799
0.0040655034 0.0027312301 0.014593415
0.0041675367 0.0027280292 0.014564814
0.0042839549 0.0027297621 0.01456689
0.0043033245 0.0027124882 0.014594639
0.00035251048 0.0028567854 0.014520356
0.00052930374 0.0028094857 0.014503761
0.0039338944 0.0028509875 0.01450933
0.0040554949 0.0028094756 0.014503639
0.0041176635 0.0028313496 0.014570618
0.0042575812 0.0028574262 0.014548251
0.00040680679 0.0029000235 0.014572916
0.0043024425 0.0029195994 0.014588327
0.00037564215 0.0030041824 0.014560537
0.00045954739 0.0030549278 0.014534919
0.0005658358 0.0030339463 0.014525932
0.0006979871 0.0030370811 0.014505674
0.00071910478 0.0030170816 0.014556881
0.0038428053 0.0030858798 0.014573489
0.0039254343 0.0030235434 0.014553316
0.0040222174 0.0030570962 0.01452017
0.004278468 0.00305736 0.014546407
0.0043256287 0.003003658 0.014571013
0.00045163563 0.003159778 0.014567185
0.00060399401 0.0031314413 0.014567623
0.00071055163 0.0031168289 0.014594004
0.00083208934 0.0031159518 0.014582207
0.0039892062 0.0031780892 0.014540007
0.0040364116 0.003176477 0.014592892
0.0041084765 0.0031284092 0.014518423
0.003786122 0.00326606 0.014503645
0.0041248626 0.003252865 0.01452978
0.00055934407 0.0033693665 0.014521929
0.0007438719 0.0033716476 0.014532924
0.00088940683 0.0033689372 0.014535406
0.0037704001 0.0033474062 0.014586016
0.0038405294 0.0033728029 0.014544811
0.0040252791 0.0033067737 0.014590907
0.00063701812 0.0034398278 0.014524288
0.0008805148 0.0034920576 0.014597416
0.0035335291 0.0034811569 0.014559913
0.0036649294 0.0034582992 0.014550831
0.0037599977 0.0034207418 0.01451584
0.0038316501 0.0034779597 0.0145916
0.0006106912 0.0035230671 0.014550977
0.00076735375 0.0035382633 0.01451632
0.00096233864 0.0035021303 0.014592911
0.0036623573 0.0035829961 0.014542928
0.0039415355 0.0035576446 0.014554543
0.0040471395 0.0035061121 0.014519366
0.00077155622 0.003632741 0.014594086
0.00082297594 0.0036469731 0.014543175
0.00095362641 0.0036865929 0.014599547
0.0010433894 0.0036678384 0.014554692
0.0035776384 0.0036951669 0.014542283
0.0036979846 0.0036995788 0.014584812
0.0037648953 0.003648587 0.014591156
0.00075861544 0.0037654981 0.014590658
0.00081414479 0.0037356126 0.014543206
0.00093848654 0.0037424304 0.014535516
0.0010102928 0.0037050678 0.014511214
0.0011278368 0.0037820744 0.014569458
0.0034877427 0.0037610552 0.014543914
0.003562757 0.0037458607 0.014552147
0.0037417889 0.0037345453 0.014543856
0.001064226 0.0038104642 0.014546886
0.0012748716 0.0038932122 0.014500814
0.0033479885 0.003881291 0.014503019
0.003769567 0.0038481313 0.01450437
0.00097950606 0.0039303913 0.0145178
0.0011649497 0.0039376342 0.014563477
0.0013382951 0.0039965692 0.014578902
0.0033612668 0.0039663501 0.014522139
0.0034081417 0.0039205858 0.014532627
0.0036425553 0.003936436 0.014560999
0.0009641776 0.0040600696 0.014554879
0.0012414793 0.0040213517 0.01458969
0.0014731196 0.004068444 0.014550377
0.0017113307 0.004041756 0.014548501
0.0018608812 0.0040740832 0.014583945
0.0020393867 0.0040418482 0.014534321
0.0021229978 0.0040781992 0.014564658
0.0022424611 0.004068194 0.014549853
0.0023575136 0.004068194 0.014549822
0.0024770359 0.0040781992 0.014564617
0.0025605927 0.0040420662 0.014534248
0.0027391799 0.004073964 0.014583995
0.0028886134 0.0040418692 0.014548394
0.0031268806 0.004068444 0.014550406
0.0032673404 0.0040843883 0.014548188
0.0033680201 0.0040572099 0.014569609
0.003414457 0.0040425849 0.014519881
0.003543929 0.0040890542 0.014529189
0.00097262277 0.0041246284 0.014549721
0.0010385815 0.004104285 0.014592775
0.0012399574 0.0041260999 0.014564432
0.0013499014 0.0041096099 0.01456308
0.001486039 0.0041567427 0.014537286
0.0015141293 0.0041213096 0.014553214
0.0016489197 0.0041249916 0.014551841
0.0017536568 0.0041620377 0.014547718
0.0018930195 0.0041567427 0.014537286
0.0019349473 0.004111201 0.014570791
0.0020159441 0.0041291877 0.014561418
0.0021787463 0.0041677118 0.014518619
0.0022754918 0.004146514 0.014531367
0.0023361105 0.0041413838 0.014528524
0.0024212433 0.0041677644 0.014518515
0.0025838378 0.0041292254 0.014561357
0.0026650524 0.004111242 0.014570769
0.0027069806 0.0041567427 0.014537286
0.0028463097 0.0041620643 0.014547476
0.0029509424 0.0041251094 0.014551979
0.0030858545 0.0041213096 0.014553199
0.0031139611 0.0041567427 0.014537286
0.0032538606 0.004121935 0.01454682
0.0033882048 0.0041123508 0.01456727
0.0034539918 0.0041327002 0.014561173
0.0035209118 0.0041567427 0.014537286
0.0012062846 -1.1920929e-07 0.014629167
0.0015708266 -1.1920929e-07 0.014629167
0.0019354282 -5.9604645e-08 0.014629167
0.0022999702 -1.1920929e-07 0.014629167
0.0026645719 -1.1920929e-07 0.014629167
0.0030292033 -1.1920929e-07 0.014629167
0.00095817749 8.5308566e-05 0.014603226
0.0010217762 7.1558425e-05 0.014636235
0.001127684 9.507846e-05 0.014601587
0.0012139727 9.064476e-05 0.014692942
0.0013402462 5.3408858e-05 0.014644741
0.0015564258 9.5524563e-05 0.014627754
0.001724154 5.3419459e-05 0.014644592
0.0018009669 5.4404376e-05 0.01467738
0.0019896368 9.6011376e-05 0.014654248
0.0020889107 5.3251995e-05 0.014638065
0.0021499321 7.4897354e-05 0.01466602
0.0022242789 9.4914933e-05 0.014645849
0.0023756088 9.516353e-05 0.014645954
0.0024500431 7.4928976e-05 0.014666035
0.0025110899 5.324939e-05 0.014638036
0.0026102921 9.607098e-05 0.014654218
0.0027990423 5.4401466e-05 0.014677364
0.0028758731 5.3390959e-05 0.014644652
0.003043503 9.5584168e-05 0.014627754
0.0032597897 5.3351861e-05 0.014644771
0.0034722448 9.5138064e-05 0.014601587
0.0036418408 8.5248961e-05 0.014603226
0.0037144981 8.0523801e-05 0.014620271
0.00091440068 0.00019712467 0.014653668
0.0012111408 0.00015824121 0.014643436
0.0013853851 0.00014292799 0.014668624
0.0014551081 0.00012926149 0.014642609
0.0015417507 0.00013363114 0.014692027
0.0016542135 0.00016359522 0.014633695
0.0018536797 0.00016958246 0.014660453
0.0019569809 0.00015190731 0.01466688
0.0020374721 0.00013953377 0.014636341
0.0022724669 0.00014161346 0.014635385
0.0023275244 0.00014157633 0.014635413
0.0025624731 0.0001394226 0.014636206
0.0026432509 0.00015201427 0.014666982
0.0027462849 0.0001695758 0.01466031
0.0029455042 0.00016363445 0.014633577
0.0030549511 0.00010112969 0.01468502
0.0031449366 0.00012929129 0.014642594
0.0032208592 0.00014300107 0.01465751
0.0033268712 0.00019309901 0.014650784
0.003433432 0.00016782625 0.014681918
0.0035323005 0.00014615973 0.014625903
0.0036440331 0.00016310651 0.014689878
0.00085726078 0.00024578761 0.014660597
0.00095126359 0.00027693485 0.014601755
0.0020142037 0.00020676227 0.014678255
0.002585877 0.00020674206 0.014678042
0.0033994077 0.000228405 0.014655672
0.0037876824 0.00027864776 0.014673807
0.0008532728 0.00034182041 0.014609187
0.00095571415 0.00032954654 0.014627128
0.0010489549 0.00032105509 0.014626803
0.0012318601 0.00033885587 0.014681974
0.0034791131 0.00035664361 0.014627586
0.003623798 0.0003187285 0.014619498
0.0037466874 0.00034182929 0.014609187
0.00083235058 0.00041963023 0.014631931
0.0011369294 0.00044356959 0.014694316
0.0035487255 0.00046303705 0.014654609
0.003679947 0.00041645113 0.014691211
0.0037943923 0.00048960635 0.014617291
0.00074495864 0.00052743743 0.014633074
0.0009058197 0.00054997404 0.014671579
0.0010177542 0.00051563611 0.014652166
0.0011482392 0.00054865686 0.014674888
0.0035069773 0.00057191029 0.014669709
0.0038857854 0.00056556449 0.014658778
0.00058872072 0.0006127684 0.014677535
0.00066324061 0.00067317579 0.01467943
0.0007734985 0.0006451598 0.014627903
0.00087539392 0.00063134223 0.014696773
0.0038264899 0.0006451598 0.014627903
0.00063542224 0.000752536 0.01465789
0.00075739867 0.00071245024 0.014653368
0.0036580919 0.00079822598 0.014685377
0.0038972748 0.0007020777 0.014645766
0.0039385068 0.00074703863 0.014640637
0.00055888569 0.00088654517 0.014638881
0.00061323872 0.00083088171 0.014687815
0.00074422359 0.0008872943 0.014679759
0.00087375863 0.00084639533 0.014659091
0.0010028285 0.00081112178 0.014649868
0.0037197892 0.00085370254 0.014621211
0.003862049 0.00087046868 0.014645672
0.003954309 0.0008460774 0.01463322
0.00044578829 0.00096901675 0.014683872
0.00056799938 0.00094202242 0.014657581
0.00060971564 0.0009512878 0.014647339
0.0037158604 0.0009227675 0.014615968
0.0040282886 0.00097954588 0.014660752
0.0041542123 0.00096901413 0.014683872
0.00035434449 0.0010952648 0.014663647
0.00043485154 0.0010649796 0.014655053
0.00074821629 0.0010166932 0.014628215
0.00393289 0.0010487587 0.014623653
0.0041650776 0.0010650392 0.014655023
0.00031683591 0.0011499589 0.014683123
0.00072090467 0.0011414684 0.014650699
0.0038576236 0.0011257278 0.014657317
0.003948878 0.0011584033 0.01466401
0.0042070132 0.0011537045 0.01460847
0.00035530544 0.0012748018 0.014645701
0.00040878481 0.0012766237 0.014629602
0.00052899122 0.0012590485 0.014654814
0.00071579067 0.0012135486 0.014653973
0.004039275 0.0012758018 0.014653995
0.004191204 0.0012766237 0.014629512
0.0042865928 0.0012080552 0.014620746
0.0001789208 0.001317349 0.014696027
0.0002269602 0.0013942517 0.014690535
0.00036204941 0.0013608098 0.014681491
0.00050592242 0.0013824473 0.014675051
0.0042060842 0.0013135361 0.014658096
0.00022285714 0.0014315728 0.014678298
0.00058701658 0.0014169846 0.014641727
0.0042193281 0.0014398094 0.014630883
0.0043771584 0.0014314759 0.014678239
0.00016463021 0.0015416122 0.014650908
0.00022618675 0.0015924092 0.014630317
0.00037448131 0.0015833342 0.014668247
0.0043734978 0.0015925976 0.014630347
0.0045024166 0.0015818127 0.01462379
0.00031584501 0.0016272193 0.014630078
0.004187007 0.0016486691 0.014630397
0.0042842031 0.0016272193 0.014630078
0.0043656155 0.0016030271 0.014647852
0.0044286307 0.0016901728 0.014644845
2.5691063e-05 0.0017278347 0.014687014
0.0043688999 0.0017729213 0.014620095
1.7059219e-05 0.0018250144 0.014655813
0.0043535847 0.0018614846 0.014673575
0.0044534681 0.0018797024 0.014614694
0.0047473256 0.0018567026 0.014634087
-5.6347159e-05 0.0019531762 0.014620134
4.6815025e-05 0.0019501392 0.014624078
0.00014794657 0.0019866661 0.014628514
0.00024983654 0.0019710781 0.014653412
0.004452046 0.0019866508 0.014628484
0.0045562568 0.0019084195 0.014631151
0.0047168788 0.001950298 0.014675169
4.6659006e-05 0.0020688795 0.014630186
0.00022013987 0.0020822634 0.014692778
-0.00018676414 0.0021041769 0.014615115
-2.9703031e-05 0.0021904767 0.014690967
0.0044453484 0.0021304041 0.014667755
0.0047486932 0.0021678684 0.014668309
-9.558232e-05 0.0022553718 0.014653274
5.1428866e-05 0.0022235224 0.014671617
0.00017721369 0.0022949004 0.014651746
0.00021950426 0.0022095947 0.014660463
-1.6893398e-05 0.002332015 0.014602385
2.5802192e-05 0.0023292736 0.014634211
0.00010502338 0.0023547509 0.014605611
0.0002229909 0.002384034 0.014631403
0.0043678395 0.0023875935 0.014631151
0.0044844588 0.0023605577 0.014629061
0.0045982315 0.0023158076 0.014651387
0.0044074589 0.0024420395 0.014614561
0.0046311496 0.0024872604 0.014650203
0.000196425 0.0025135106 0.014670553
0.004130383 0.0025096929 0.014633511
0.00039192013 0.0026744942 0.014658743
0.00056477805 0.0026580757 0.014642605
0.004233113 0.002624081 0.014677433
0.0044711744 0.0026869732 0.014604066
0.00031584501 0.0027211369 0.014630078
0.00041457373 0.002703554 0.014630317
0.00053602608 0.0027456754 0.014678298
0.0040501826 0.002772447 0.014690149
0.0041854149 0.002703554 0.014630317
0.0042842031 0.0027211369 0.014630078
0.0043657874 0.0027695163 0.014647676
0.00036539728 0.0028558793 0.014647634
0.00051059778 0.0028511235 0.014699205
0.00055442058 0.0029221764 0.014634806
0.00067425298 0.0029966326 0.014615051
0.00042634705 0.003070032 0.014607292
0.00056296494 0.0030552442 0.014642178
0.00080962747 0.0030092064 0.014627888
0.0038006115 0.0030934922 0.014606998
0.0040275231 0.00304747 0.014646961
0.0041630338 0.0030161403 0.014615516
0.0042426521 0.0030244461 0.014659063
0.00051128987 0.0031274322 0.014674087
0.00065928075 0.0031640958 0.014661332
0.0007723649 0.003116922 0.014669462
0.0038372276 0.0031185157 0.014661432
0.0039070128 0.0031446745 0.014661884
0.00053261343 0.0032866632 0.014651179
0.00062079448 0.0032273214 0.014648914
0.0007640238 0.003237464 0.014691914
0.0038426719 0.0032706163 0.014623304
0.00062580802 0.0033386592 0.014645904
0.00077955064 0.0033349926 0.014628737
0.0037592598 0.0033811966 0.014698449
0.0038204887 0.0033350233 0.014628737
0.00076080748 0.0034610885 0.014652432
0.00089679559 0.0034392092 0.014666609
0.00095541682 0.0034736381 0.014632045
0.0036445402 0.0034735873 0.014632015
0.0037293851 0.0034012781 0.014601219
0.0038296417 0.0034820798 0.014646062
0.00085704931 0.0035364542 0.014666631
0.0010535159 0.0035670807 0.014643221
0.0035619973 0.0035634476 0.014669092
0.0038860904 0.0035152482 0.014615653
0.00096179638 0.0036506557 0.014627903
0.0010712503 0.0036672775 0.014604747
0.0034550151 0.0036841736 0.014601505
0.0035439462 0.0036845603 0.014669031
0.0036621778 0.0036619599 0.014628921
0.0038754037 0.0036464049 0.014636793
0.0039382931 0.0036670093 0.014605282
0.0012005924 0.003755033 0.014655702
0.0036937376 0.0037490299 0.014684552
0.0037549147 0.0037763375 0.014670243
0.00086132728 0.0038782693 0.014672948
0.0010657414 0.0038414912 0.014626495
0.0011590229 0.0038235113 0.014607291
0.003434384 0.0038168868 0.014641368
0.0036178925 0.0038213483 0.014684709
0.0037389146 0.0038236985 0.014637549
0.001029609 0.0039178142 0.014642753
0.0011439819 0.0039662193 0.014627128
0.0015708266 0.0039838552 0.014629167
0.0019354282 0.0039837956 0.014629167
0.0022999702 0.0039838552 0.014629167
0.0026645719 0.0039838552 0.014629167
0.0030292033 0.0039838552 0.014629167
0.0033937453 0.0039840937 0.014629137
0.0034560575 0.00396625 0.014627128
0.003679947 0.0039611179 0.014691211
0.0037521387 0.003986672 0.014691322
0.00095543219 0.0040649013 0.014629524
0.0010265699 0.0040504159 0.014667246
0.0011705846 0.004051365 0.014629805
0.0012112147 0.0040527172 0.014631281
0.0013448102 0.0040487805 0.014644713
0.0014361932 0.0040792897 0.014601587
0.0015358239 0.0040667034 0.014621527
0.0016744384 0.0040367637 0.014612167
0.0017855815 0.0040537845 0.014666175
0.0018539851 0.0040779207 0.014644198
0.0019487414 0.0040845419 0.01461789
0.0020553209 0.0040369667 0.014625042
0.0021618865 0.0040372582 0.014638036
0.0022993721 0.0040821838 0.014630521
0.0023012145 0.004080534 0.014654188
0.0024381143 0.0040372554 0.014638065
0.0025447148 0.0040370831 0.014625072
0.002651253 0.0040845927 0.014617858
0.002745999 0.0040779598 0.014644194
0.0028144533 0.0040537273 0.014666185
0.0029256148 0.0040369374 0.014612197
0.0030641789 0.0040666866 0.014621506
0.0031637952 0.0040792897 0.014601587
0.0032523591 0.0040209787 0.014633729
0.0034639894 0.0040838337 0.014606853
0.0035513137 0.0040366175 0.014652589
0.0036632237 0.0040798238 0.014615787
0.00099483063 0.0041275644 0.014614819
0.0012214412 0.0041248035 0.014620179
0.0015651661 0.0041466658 0.014635467
0.001749551 0.0041135927 0.014654523
0.0018645518 0.0041333586 0.014662184
0.0020302311 0.0041460376 0.014618449
0.0021652363 0.0041907406 0.014626646
0.0024345298 0.0041908128 0.014625969
0.0025699488 0.0041463231 0.014618107
0.0027354166 0.0041332776 0.014662298
0.0028503505 0.0041137058 0.014654526
0.0030348047 0.0041466244 0.014635159
0.0032801316 0.0041441768 0.014621013
0.0033893092 0.0041427389 0.014601197
0.0034212125 0.0041759163 0.014646945
0.0011939913 5.4668355e-05 0.014757745
0.0012638329 8.8881774e-05 0.014707329
0.0014341773 7.0764647e-05 0.014777417
0.0015673778 8.9146575e-05 0.014770742
0.0016336362 9.1725771e-05 0.014722938
0.0017303932 9.6843345e-05 0.014707922
0.0019766546 7.1765025e-05 0.014712364
0.0021320721 8.9777277e-05 0.014732166
0.0022532213 5.8125923e-05 0.014769984
0.0023233402 7.3638774e-05 0.014738647
0.002467989 8.9777277e-05 0.014732245
0.0026233823 7.1901675e-05 0.014712318
0.0028695359 9.678374e-05 0.014707952
0.0029663746 9.1807364e-05 0.014722922
0.0030326284 8.9198089e-05 0.014770702
0.0031657976 7.0673421e-05 0.014777385
0.0010844229 0.00016894928 0.01474761
0.0011198533 0.00012677757 0.01470164
0.0014356999 0.00012431447 0.014742265
0.0015547611 0.00013047038 0.014756758
0.0016469468 0.00013913715 0.014739871
0.0017430887 0.00012751065 0.014712484
0.0018496636 0.00016705423 0.014737047
0.0019099473 0.00010076338 0.014762222
0.0020951524 0.00012659848 0.014763041
0.0021419791 0.0001612323 0.014753976
0.0022530607 0.00011502364 0.014717411
0.0023351731 0.00011145863 0.014728671
0.0024577419 0.00016127292 0.014753959
0.0025050915 0.0001264125 0.014763011
0.0026900826 0.00010086559 0.014762283
0.0027505013 0.00016695664 0.014737926
0.0028567035 0.00012767756 0.014712383
0.002952971 0.00013925158 0.014739798
0.0030485704 0.0001375353 0.014745662
0.0031642951 0.00012431447 0.01474229
0.0032639415 0.0001532161 0.014761604
