# .PCD v0.7 - Point Cloud Data file format
VERSION 0.7
FIELDS x y z
SIZE 4 4 4
TYPE F F F
COUNT 1 1 1
WIDTH 1234
HEIGHT 1
VIEWPOINT 0 0 0 1 0 0 0
POINTS 1234
DATA ascii
0.0045893695 0.0018464512 0.0062481882
-0.00010428496 0.0021927082 0.0062275194
0.00019010693 0.0022920752 0.0062560271
0.0043730107 0.002271903 0.0062326393
0.0046262704 0.0022324116 0.0062632752
0.00030713709 0.0027045433 0.0062510571
0.00059132429 0.0028578846 0.0061994763
0.0039298963 0.0029224034 0.0062538446
0.0042550177 0.0027280329 0.0062588509
0.00043476597 0.0031460086 0.0061965669
0.00071239279 0.0032709853 0.006262558
0.0038518279 0.003284717 0.0062220097
0.0041015837 0.0031533455 0.0062186876
0.00085255568 0.0036778289 0.0062337671
0.001127038 0.0038028765 0.0062525207
0.0017531274 0.0039838254 0.006243946
0.0022999702 0.0039838552 0.006243946
0.0026645719 0.0039838552 0.006243946
0.0034017183 0.0038483287 0.0062361988
0.0037062792 0.0037305215 0.0062794285
0.004018357 0.0035044423 0.006121445
0.00097308954 0.0041115605 0.006369418
0.0012791532 0.0040957099 0.0062716543
0.0017679743 0.0041105645 0.0062445826
0.0022593348 0.0041020517 0.0062109544
0.0027450125 0.0041078003 0.0062460755
0.0032256218 0.0041052005 0.0062672943
0.0035858026 0.0040932898 0.0062607098
0.0012062846 -1.1920929e-07 0.0067908084
0.0017531274 -8.9406967e-08 0.0067908084
0.0022999702 -1.1920929e-07 0.0067908084
0.0026645719 -1.1920929e-07 0.0067908084
0.0030292033 -1.1920929e-07 0.0067908084
0.00087986368 0.00031703513 0.0067706839
0.0012412242 0.00018581479 0.0067363381
0.0017417986 0.0001239063 0.0067554694
0.0022493068 0.00011844822 0.006778182
0.0027342611 0.0001186403 0.0067771161
0.003243516 0.00015100102 0.0067447536
0.0036573992 0.00028932744 0.0067462432
0.00046670789 0.00090252224 0.0067088064
0.00075633271 0.00076094846 0.0067632543
0.0010396452 0.00060044142 0.0067396169
0.003487712 0.00057573215 0.0065449541
0.0037841315 0.00071723486 0.0067677763
0.0040568444 0.00088090508 0.0067295395
0.00037277921 0.0012678612 0.0067515834
0.00062171527 0.0012273419 0.0067259013
0.0011654533 0.0012906648 0.0068575731
0.003915024 0.0011933363 0.0068260068
0.0042025116 0.0012592123 0.0067359242
-6.438409e-05 0.0018718602 0.0067314976
0.00022596332 0.0017417138 0.0067555602
0.0018137795 0.0016913523 0.0068575731
0.0043138973 0.0017086152 0.0067648892
0.0045957998 0.0018588238 0.0067633777
-8.1997787e-05 0.0022266377 0.0067507462
0.0001806162 0.0022761414 0.0067828167
0.0043701222 0.0023157813 0.0067414837
0.0046271579 0.0022486653 0.0067677293
0.00033789282 0.002706653 0.0067504225
0.00058121211 0.0028193383 0.0067488262
0.0039227246 0.0028820469 0.0068505551
0.0042433753 0.0027297908 0.0067390529
0.0045344504 0.0025467644 0.0068004541
0.00041701863 0.0030924948 0.0066987094
0.00072622468 0.0032681006 0.0067444895
0.0010573801 0.0034598398 0.0066211275
0.0038325011 0.0032880458 0.0067618135
0.0040926212 0.0031490331 0.006720616
0.00084047858 0.0037228025 0.0067797108
0.0011106487 0.0037892109 0.0067882254
0.0017531274 0.0039838254 0.0067908084
0.0022999702 0.0039838552 0.0067908084
0.0026645719 0.0039838552 0.0067908084
0.0033844393 0.0038990595 0.0067819194
0.0037063414 0.0037155547 0.0067673717
0.00095751282 0.0040893429 0.0067076576
0.0012772602 0.0040897159 0.0067459582
0.0017427934 0.0041061081 0.0067525436
0.0022690329 0.0041082879 0.0067363041
0.0027513509 0.0041026799 0.0067439838
0.0032370964 0.0040982356 0.0067574237
0.003595779 0.0040859976 0.0067398944
0.0012062846 -1.1920929e-07 0.0073376708
0.0017531274 -8.9406967e-08 0.0073376708
0.0022999702 -1.1920929e-07 0.0073376708
0.0026645719 -1.1920929e-07 0.0073376708
0.0030292033 -1.1920929e-07 0.0073376708
0.00087997236 0.00034688858 0.0072852098
0.0012457132 0.00019296647 0.0072627859
0.0017443409 0.00012759971 0.0072472165
0.0022519142 0.00012852333 0.0072413459
0.0027388977 0.00013050396 0.0072482489
0.0032470701 0.00016035655 0.0072604651
0.0036531431 0.00029302904 0.0072364938
0.00045552143 0.00093349465 0.0072493367
0.00076277886 0.00076894299 0.0072588171
0.0010440969 0.00054673891 0.0072242501
0.003484197 0.00054953038 0.0074064792
0.0038005353 0.00072851055 0.0072690202
0.0040776371 0.00091996335 0.0072598644
0.00037729452 0.0012652148 0.0072498145
0.00060623104 0.0012122386 0.0072877491
0.0011654219 0.0012907155 0.0072386852
0.0039154864 0.0011476283 0.0072955638
0.0041791298 0.0012777351 0.0072490438
-4.7574882e-05 0.0018615547 0.0073034763
0.00022384123 0.0017376078 0.0072404998
0.00051459286 0.0015621699 0.0071523557
0.001813748 0.0016914031 0.0072386852
0.0043187789 0.00172122 0.0072509251
0.0045866454 0.001813486 0.0072515765
-9.893447e-05 0.0022064378 0.0072461651
0.00016869247 0.0022988387 0.0072813132
0.0043784748 0.0022991637 0.0072507025
0.0046160952 0.0022375605 0.0072344211
0.00031742066 0.0027048022 0.0072418447
0.00058758509 0.0028434847 0.0072776368
0.0039270646 0.0028510492 0.0071452092
0.0042328369 0.0027558764 0.0072470265
0.004509097 0.0025631313 0.0074603753
0.00043118073 0.0031387599 0.0072419588
0.00072310801 0.003272518 0.0072384197
0.0010296945 0.0034836675 0.0074697705
0.0038180866 0.0033153128 0.0072796787
0.0040877718 0.0031924343 0.0072497437
0.00087324274 0.0037402255 0.0072746901
0.0011267614 0.0038193963 0.0072550271
0.0017531274 0.0039838254 0.0073376708
0.0022999702 0.0039838552 0.0073376708
0.0026645719 0.0039838552 0.0073376708
0.0034017817 0.0038557877 0.007225581
0.0036914663 0.0037392147 0.0072344053
0.00092734682 0.0040485342 0.0072465553
0.0012913095 0.0041083423 0.0072512301
0.001760434 0.0041092876 0.0072523504
0.0022721495 0.0041128853 0.0072567477
0.0027601218 0.0041088746 0.0072367163
0.0032309867 0.0041078087 0.0072837039
0.0035843158 0.0040829154 0.0072399229
0.0012062846 -1.1920929e-07 0.0077022454
0.0017531274 -8.9406967e-08 0.0077022454
0.0022999702 -1.1920929e-07 0.0077022454
0.0026645719 -1.1920929e-07 0.0077022454
0.0030292033 -1.1920929e-07 0.0077022454
0.00087649451 0.0003648065 0.0077436171
0.0012418411 0.00017686849 0.0077593457
0.0017406981 0.0001250924 0.0077199568
0.002244212 0.0001243513 0.0077595585
0.0027298816 0.00012172251 0.0077114864
0.0032721572 0.00016166565 0.0077528819
0.0036753691 0.00033876559 0.0077409465
0.00043938769 0.00091864105 0.0075994907
0.00075582654 0.00076237856 0.0077734734
0.0010507872 0.00055284542 0.0077570318
0.003785901 0.00071057776 0.0077424427
0.0040633539 0.00086230837 0.0077461428
0.00036778738 0.0012739619 0.0077283843
0.00064632791 0.0011801475 0.007745116
0.0011654219 0.0012907155 0.0076197078
0.0038956015 0.0011683383 0.0077915541
0.0041939644 0.0012536317 0.0077356258
0.0045098094 0.0014627589 0.007897458
-8.000707e-05 0.0018933896 0.0076743602
0.00023010545 0.0017537259 0.0077426666
0.001813748 0.0016914031 0.0076197078
0.0043245116 0.0017341677 0.0077266535
0.0046057696 0.0018552368 0.0077432254
-8.117262e-05 0.0022173158 0.0076662651
0.00017531424 0.0022980154 0.0077205421
0.0043541389 0.0023244298 0.007740573
0.0046154647 0.002246127 0.0077507379
-2.1055999e-05 0.0025009462 0.0079946835
0.00034492291 0.0027502791 0.0077570314
0.00057644863 0.0028371024 0.0077281436
0.0039186636 0.0029254265 0.0078372573
0.0042292131 0.0027321249 0.0077285706
0.0045226356 0.0025514017 0.0077948985
0.00041154731 0.0031308653 0.0077173952
0.00073360867 0.0032681625 0.0077654249
0.0010006094 0.0033576228 0.0079868007
0.0038508524 0.0032802727 0.007743543
0.0041363025 0.0031364097 0.0077554695
0.00083473459 0.003730638 0.0077515673
0.0011252339 0.003827326 0.0077475859
0.0017531274 0.0039838254 0.0077022454
0.0022999702 0.0039838552 0.0077022454
0.0026645719 0.0039838552 0.0077022454
0.0034131645 0.0038677067 0.0077440646
0.0037027483 0.003737139 0.0077414825
0.00097199011 0.00408252 0.0077624088
0.0012683113 0.0041016885 0.0077629364
0.00174398 0.0041080504 0.0077608679
0.002259288 0.0041077789 0.0077400263
0.002759831 0.0041067479 0.0077561089
0.0032223451 0.0040981486 0.0077689178
0.0035771891 0.0041067963 0.0077273613
0.0012062846 -1.1920929e-07 0.0082491077
0.0017531274 -8.9406967e-08 0.0082491077
0.0022999702 -1.1920929e-07 0.0082491077
0.0026645719 -1.1920929e-07 0.0082491077
0.0030292033 -1.1920929e-07 0.0082491077
0.00089076132 0.00030178367 0.0082667256
0.0012445688 0.00019644093 0.0082483767
0.0017525373 0.00012229524 0.0082512032
0.0022713284 0.00011917769 0.0082413657
0.0027722311 0.00012140188 0.0082537439
0.0032427721 0.00015593419 0.0082649952
0.0036607352 0.0003091954 0.0082221981
0.00044608847 0.00092393334 0.0082548214
0.00075118424 0.00076269777 0.0082416069
0.001043675 0.00057288818 0.0082541835
0.003779137 0.00070450356 0.0082492074
0.0040872591 0.00092362083 0.008216572
0.00035693008 0.0013007538 0.0082256747
0.00061822747 0.0012143491 0.0082678497
0.0011654533 0.0012906648 0.0081913611
0.0038963959 0.0011826621 0.0082852142
0.0041919542 0.001278532 0.0082594901
-5.5725868e-05 0.0018731352 0.0082379775
0.00021652076 0.0017539752 0.0082659852
0.00052610505 0.0015916957 0.0080979764
0.0018137795 0.0016913523 0.0081913611
0.0043303836 0.0017392905 0.0082621947
0.0046034944 0.0018555919 0.0082560992
-9.1719274e-05 0.0021884954 0.0082403142
0.00016797741 0.0023028527 0.008242134
0.0043438058 0.0023034078 0.0082695978
0.0045965393 0.0022708487 0.0082802139
0.00033796244 0.0027272501 0.0082890326
0.00057221053 0.0028112882 0.0082323765
0.003971789 0.0028986246 0.008286709
0.0042262711 0.002744453 0.0082369559
0.0045402851 0.0025687106 0.0083179539
0.00042340922 0.0031008816 0.0082437769
0.0007249277 0.0032562914 0.0082566096
0.0010014507 0.0034277972 0.008400715
0.003833198 0.0032978379 0.0082613304
0.0041175387 0.0031408009 0.0082702087
0.00087615469 0.0037332654 0.008243287
0.0011248713 0.003808846 0.0082436996
0.0017531274 0.0039838254 0.0082491077
0.0022999702 0.0039838552 0.0082491077
0.0026645719 0.0039838552 0.0082491077
0.0033840996 0.0038930094 0.0082712052
0.0036911198 0.0037450546 0.0082453182
0.00096160703 0.0040839971 0.0082595712
0.0012889348 0.0040957583 0.008228492
0.0017836154 0.0041065584 0.0082466099
0.0022351285 0.0041051842 0.0082749585
0.0027190947 0.0041044527 0.0082757585
0.0032139691 0.0041002487 0.0082390038
0.0035778002 0.004075021 0.0082055712
0.0012062846 -1.1920929e-07 0.0087959701
0.0017531274 -8.9406967e-08 0.0087959701
0.0022999702 -1.1920929e-07 0.0087959701
0.0026645719 -1.1920929e-07 0.0087959701
0.0030292033 -1.1920929e-07 0.0087959701
0.00089653605 0.00033462304 0.0087635536
0.001232687 0.00019255211 0.0087709334
0.0017533278 0.00012563841 0.0087732123
0.0022616393 0.00012805003 0.0087348297
0.0027326564 0.00012711728 0.0087426808
0.0032622032 0.00016183633 0.0087690782
0.0036641341 0.00031713734 0.0087652011
0.00045968554 0.00087980175 0.0088408841
0.00075636985 0.00076719455 0.0087299543
0.0010261905 0.00059114484 0.0087866168
0.0034951477 0.00056788087 0.0089357067
0.0037929225 0.00074190367 0.0087481383
0.0040659267 0.00087478012 0.0087527419
0.00034501182 0.0013005863 0.0087325405
0.00059900212 0.0012291792 0.0087728184
0.0011654533 0.0012906648 0.0087629845
0.0038935591 0.0011466891 0.008755412
0.0041762139 0.0012748861 0.008752659
-7.964555e-05 0.0019223838 0.0086730886
0.00021691251 0.0017250805 0.0087701986
0.00053276896 0.001547341 0.0088126734
0.0018137795 0.0016913523 0.0087629845
0.0043149637 0.0016936702 0.0087649086
0.0045837392 0.0018265903 0.008742285
-0.00010496409 0.0021630789 0.0086765299
0.0001705257 0.0022676906 0.0087585794
0.004381571 0.0022926044 0.0087478673
0.0046402919 0.0021993984 0.0087555675
0.00029093612 0.002682653 0.0087509062
0.00057769893 0.0027946227 0.0087779295
0.0039203665 0.0029022947 0.0086774807
0.0042228955 0.0027415184 0.0087490277
0.0045493743 0.0025437861 0.0087567084
0.00044833682 0.0031168649 0.0087598395
0.00070932612 0.0032780247 0.0087286551
0.0010246141 0.0034690858 0.008688245
0.0038206351 0.0033294696 0.0087662963
0.0040949318 0.0031957002 0.0087771229
0.00085866521 0.0037094951 0.0087795369
0.0011254943 0.0038412649 0.0087391809
0.0017531274 0.0039838254 0.0087959701
0.0022999702 0.0039838552 0.0087959701
0.0026645719 0.0039838552 0.0087959701
0.0034063479 0.0038433322 0.0087109515
0.0036772396 0.0037409139 0.008743328
0.00096409273 0.0040589324 0.0087782089
0.0013094058 0.0041048066 0.0087413406
0.0017621628 0.0041119265 0.0087450584
0.0022569648 0.0041087163 0.0087456433
0.0027489509 0.0041125147 0.008749838
0.0032176003 0.0041045253 0.0087538203
0.0036058621 0.0040773982 0.0087503623
0.0012062846 -1.1920929e-07 0.0091605447
0.0017531274 -8.9406967e-08 0.0091605447
0.0022999702 -1.1920929e-07 0.0091605447
0.0026645719 -1.1920929e-07 0.0091605447
0.0030292033 -1.1920929e-07 0.0091605447
0.0008685189 0.00034399488 0.0092253592
0.0012247266 0.0002107801 0.0092486599
0.0017403383 0.00012650734 0.0092536602
0.0022439528 0.00011587096 0.0092142569
0.0027590054 0.00012401921 0.0092346203
0.003281296 0.0001835586 0.009261651
0.0036712922 0.00032168228 0.0092557864
0.0004607109 0.00092743506 0.0091517437
0.00076807168 0.0007524002 0.0092426129
0.0010548696 0.00056756363 0.0091684964
0.0037945532 0.00071432453 0.0092184059
0.0040866975 0.00089691515 0.0092314221
0.00035813989 0.0012639941 0.0092259366
0.00063171849 0.0012044688 0.0092554316
0.0011654533 0.0012906648 0.009144037
0.0038871947 0.0011503381 0.0093105724
0.004181887 0.0012652272 0.0092471978
-5.9641807e-05 0.0018756343 0.0091998512
0.00021475757 0.0017614485 0.009239302
0.0018137795 0.0016913523 0.009144037
0.0043149856 0.0017378805 0.0092446674
0.0046082241 0.0018527402 0.0092405071
-7.7526827e-05 0.0022011069 0.0092151947
0.00018874514 0.0023073046 0.0092219785
0.0043723155 0.0022832684 0.0092272684
0.0046192417 0.0022640787 0.009247371
0.00030814533 0.0027038532 0.0092516104
0.00060007698 0.002833663 0.009227667
0.0039336975 0.0028761502 0.0093215574
0.0042424127 0.0027181783 0.0092171421
0.0045651253 0.0025385667 0.0093585355
0.00041792126 0.003108785 0.0092620701
0.00072322349 0.0032780338 0.0092515554
0.0010058617 0.0034702034 0.0093560861
0.0038394746 0.0032653881 0.0092406869
0.004142731 0.0031052504 0.0092817228
0.00084942434 0.0037496616 0.0092226462
0.0011098485 0.003799167 0.0092309145
0.0017531274 0.0039838254 0.0091605447
0.0022999702 0.0039838552 0.0091605447
0.0026645719 0.0039838552 0.0091605447
0.0033933329 0.0038882755 0.0092024198
0.0037045528 0.0037304526 0.0092347953
0.00093209383 0.0040579387 0.009273883
0.001267179 0.0041054473 0.0092374561
0.0017209328 0.0041068136 0.0092564747
0.0022714362 0.0041005346 0.0092249056
0.0027806174 0.00409981 0.0092345588
0.0032252755 0.0041087847 0.0092468942
0.0035870932 0.0040781167 0.0092417933
0.0012062846 -1.1920929e-07 0.0097074062
0.0017531274 -8.9406967e-08 0.0097074062
0.0022999702 -1.1920929e-07 0.0097074062
0.0026645719 -1.1920929e-07 0.0097074062
0.0030292033 -1.1920929e-07 0.0097074062
0.00088207581 0.00032447366 0.0097646862
0.001234066 0.00019883014 0.0097348792
0.0017347401 0.00012160475 0.0097439447
0.0022501082 0.00011330086 0.0097528808
0.0027530915 0.0001199547 0.0097704371
0.0032659313 0.00017078833 0.0097281989
0.0036877245 0.00032125739 0.00975616
0.00044763272 0.00092418719 0.0097644608
0.00074944063 0.00073701714 0.0097309044
0.001037286 0.00054167199 0.0097180502
0.0034982404 0.00052262779 0.0096630398
0.0037864123 0.0007156012 0.009746233
0.004059806 0.00088330579 0.0096554738
0.00036617552 0.001278353 0.0097541437
0.00063697452 0.0011847591 0.0097340066
0.0011654376 0.0012906902 0.0097156754
0.0038838007 0.0011517559 0.0097749354
0.0041807247 0.0012569628 0.0097510973
-7.1380091e-05 0.0019023686 0.0097621297
0.00021088192 0.0017576058 0.0097395824
0.0018137638 0.0016913777 0.0097156754
0.0043312823 0.0017316635 0.0097447867
0.0045938808 0.0018526752 0.0097674727
-9.0570909e-05 0.0021843708 0.0097700404
0.00015726655 0.002292953 0.0097154444
0.0043513109 0.002327241 0.0097475313
0.0046205716 0.0022420944 0.009747101
0.00031682506 0.002698045 0.0097773122
0.00058543344 0.0028139823 0.0096780974
0.0038968362 0.0029490374 0.0098060155
0.0042284783 0.0027199837 0.0097320266
0.0045276997 0.002547666 0.0099214818
0.00041061384 0.0030919435 0.0097206673
0.0007122088 0.0032265394 0.0097445985
0.0010315315 0.0034798936 0.0095730107
0.0038315868 0.0033056962 0.0097468672
0.0041292561 0.0031267975 0.0097466987
0.00084421004 0.0037293665 0.0097663086
0.0011237933 0.0038275821 0.0097494749
0.0017531274 0.0039838254 0.0097074062
0.0022999702 0.0039838552 0.0097074062
0.0026645719 0.0039838552 0.0097074062
0.0033811796 0.0038901784 0.0097373948
0.003683293 0.0037615234 0.0097553935
0.00094790081 0.0040793018 0.009766994
0.0012873748 0.004098827 0.0097437231
0.0017288851 0.0041022715 0.0097444169
0.0022771589 0.0041014226 0.0097481497
0.0027710139 0.0040937928 0.0097578466
0.0032222094 0.004106422 0.009729364
0.0036061471 0.0040855305 0.0096946517
0.0012062846 -1.1920929e-07 0.010254269
0.0017531274 -8.9406967e-08 0.010254269
0.0022999702 -1.1920929e-07 0.010254269
0.0026645719 -1.1920929e-07 0.010254269
0.0030292033 -1.1920929e-07 0.010254269
0.00090721762 0.00031557004 0.010248341
0.0012554303 0.00017860172 0.010239348
0.0017534045 0.00012685743 0.010235115
0.0022682687 0.00013026867 0.010281528
0.0027412423 0.00012549279 0.010259469
0.0032456163 0.00015870942 0.010213307
0.003648188 0.00031052262 0.010246341
0.00045048716 0.00093245634 0.010235071
0.00075358077 0.00075908873 0.010254703
0.0010375147 0.00060084567 0.010209619
0.0034728954 0.00050186797 0.01002698
0.0037840717 0.00072999275 0.010264141
0.0040626442 0.00086216762 0.010257732
0.00035668048 0.0012856072 0.01024432
0.00062416593 0.0012164506 0.010267395
0.0011654533 0.0012906648 0.010287284
0.00268898 0.0012138316 0.010483205
0.0039355219 0.0011953925 0.010219685
0.0041818661 0.0012835049 0.010254037
0.0045332727 0.0014982916 0.01016103
-7.4362804e-05 0.0018688883 0.01027107
0.00021707348 0.0017278312 0.010251898
0.00054725551 0.0015638494 0.01047016
0.0017164139 0.001791521 0.010358115
0.004322391 0.001707291 0.010255202
0.0046042916 0.0018340279 0.010242342
-9.3135641e-05 0.002162806 0.010231482
0.00018218929 0.0022913141 0.010239405
0.0034674464 0.0023810093 0.010499775
0.0043666726 0.0022777228 0.010251252
0.0046018506 0.0022346061 0.010280425
0.00030042505 0.002702201 0.010232558
0.00057145196 0.002800195 0.010285303
0.0039640572 0.002876038 0.010171862
0.0042386013 0.0027074541 0.010273146
0.0045246482 0.0025976249 0.010204112
0.00043781448 0.0031302695 0.010274743
0.00072380807 0.0033075553 0.010248817
0.0010214505 0.0034597679 0.010080981
0.0022999702 0.003158906 0.010483444
0.0038273812 0.0033098171 0.01027878
0.0040837424 0.0031837262 0.010277671
0.00085152715 0.0036931387 0.01025388
0.001117816 0.0038183427 0.010251758
0.0017531274 0.0039838254 0.010254269
0.0022999702 0.0039838552 0.010254269
0.0026645719 0.0039838552 0.010254269
0.0034104157 0.0038758635 0.010230421
0.0036961657 0.0037232204 0.010244904
0.00095326477 0.0040683178 0.010269274
0.0012975308 0.0041023283 0.010260544
0.0017626694 0.0041132434 0.010276158
0.0022599101 0.0041062515 0.010274958
0.0027567984 0.0041132527 0.010265058
0.0032150657 0.0041097933 0.010259809
0.0035984307 0.0040677874 0.010239297
0.0012062846 -1.1920929e-07 0.010801131
0.0017531274 -8.9406967e-08 0.010801131
0.0022999702 -1.1920929e-07 0.010801131
0.0026645719 -1.1920929e-07 0.010801131
0.0030292033 -1.1920929e-07 0.010801131
0.00088812184 0.00030551371 0.010785319
0.0012481693 0.00018743324 0.010728611
0.0017491316 0.00012250828 0.010760111
0.0022594461 0.00011824331 0.010734233
0.0027711694 0.00012387638 0.010756661
0.0032686859 0.00017197266 0.01074553
0.0036657574 0.00031583366 0.010773958
0.00045249597 0.00095518772 0.010709767
0.00074471132 0.00074663811 0.010761702
0.0010435178 0.00062196498 0.010771126
0.0034927325 0.00055318011 0.01076988
0.003792068 0.00073558401 0.010745032
0.0040874155 0.00090339966 0.01079537
0.00034944812 0.0013050881 0.010756828
0.00062437478 0.0012000164 0.010721767
0.0011654219 0.0012907155 0.010668366
0.0023000299 0.0012099637 0.010716617
0.0038930839 0.0011459222 0.010745278
0.0041742092 0.0012825566 0.010737078
-7.0789363e-05 0.0019016037 0.010754553
0.00021941977 0.0017583378 0.010751956
0.001813748 0.0016914031 0.010668366
0.0034727214 0.0019918585 0.01071173
0.0043317657 0.0017336105 0.010738908
0.0046157436 0.0018787025 0.010764482
-6.8030386e-05 0.0021492247 0.010668402
0.00018990901 0.0023111186 0.010728529
0.0015181957 0.0023827653 0.01071173
0.004378513 0.0023026876 0.010776267
0.0046474896 0.0022016722 0.010752202
0.00031376255 0.0027270305 0.010746875
0.00059426721 0.0028588653 0.010729498
0.003946194 0.0028621943 0.010760147
0.0042210701 0.0027403531 0.010730875
0.0045117647 0.0025895222 0.010568131
0.00041370999 0.0031005121 0.010717061
0.00070849271 0.0032639657 0.010760283
0.0010315309 0.0034760726 0.010932231
0.0026909171 0.0031647007 0.010716617
0.0038242568 0.0032908618 0.0107528
0.0041110096 0.0031241432 0.01076841
0.00086914038 0.0037390613 0.010718218
0.0011296688 0.003817173 0.010742288
0.0017531274 0.0039838254 0.010801131
0.0022999702 0.0039838552 0.010801131
0.0026645719 0.0039838552 0.010801131
0.0033820232 0.0038973396 0.010737463
0.0036811603 0.0037328354 0.010780243
0.00096561457 0.0040764324 0.010883753
0.0012978876 0.004096224 0.010785739
0.0017754338 0.0041061281 0.010762207
0.0022318524 0.0041046147 0.01074344
0.0027167017 0.0041053174 0.010738163
0.0032250579 0.0041020364 0.010770824
0.0035756333 0.0040913848 0.010808891
0.0012062846 -1.1920929e-07 0.011347993
0.0017531274 -8.9406967e-08 0.011347993
0.0022999702 -1.1920929e-07 0.011347993
0.0026645719 -1.1920929e-07 0.011347993
0.0030292033 -1.1920929e-07 0.011347993
0.00087550073 0.00033022012 0.011283751
0.0012032676 0.00021361615 0.011252661
0.0017341523 0.00012486786 0.011259279
0.0022528609 0.0001219076 0.011207578
0.0027351882 0.00011937149 0.011276577
0.003261605 0.00015117292 0.011243712
0.0036764701 0.00034177062 0.011277343
0.00045102442 0.00095039135 0.011251396
0.00076418178 0.00073551846 0.011255886
0.0010537938 0.00056584866 0.011107789
0.0034625283 0.00050404528 0.01119087
0.0037893129 0.0007251174 0.011231228
0.0040689064 0.00090083701 0.011292871
0.00035626066 0.0012699863 0.011287176
0.00064254034 0.0011830366 0.01122049
0.0011654377 0.0012906902 0.01123996
0.0039004474 0.0011506528 0.011282493
0.0041945777 0.0012759727 0.011239121
-5.8030491e-05 0.001899019 0.011249949
0.00022448372 0.0017456746 0.011268094
0.0018137638 0.0016913777 0.01123996
0.0043261689 0.0017268306 0.011252625
0.0046234448 0.0018619251 0.011225396
-8.2083941e-05 0.0021968472 0.011268683
0.00018074265 0.0023078476 0.011243513
0.0043686437 0.0023241048 0.011277673
0.0046208212 0.0022634945 0.011255614
0.00031460231 0.0027208421 0.011285334
0.00062302343 0.0028584783 0.011176387
0.0039283712 0.0029291522 0.011294521
0.0042181388 0.0027478435 0.011256247
0.00042122812 0.0031248953 0.01122538
0.00070185633 0.0032571515 0.011257994
0.0010382412 0.0034162796 0.011062875
0.0038335351 0.0032950949 0.011237434
0.0041520246 0.003111627 0.01125937
0.00085254939 0.0037135123 0.011253251
0.0011210128 0.0038401601 0.011237935
0.0017531274 0.0039838254 0.011347993
0.0022999702 0.0039838552 0.011347993
0.0026645719 0.0039838552 0.011347993
0.0034025682 0.0038862126 0.011274979
0.0036954584 0.00374093 0.011257648
0.00095893978 0.0041075461 0.011330941
0.0012703687 0.0040985243 0.011236776
0.0017493606 0.0041071675 0.011258828
0.0022592722 0.0041101817 0.011280281
0.0027572105 0.0041059651 0.011261998
0.0032343913 0.0041025039 0.01124273
0.0035733199 0.0040873694 0.011264145
0.0012062846 -1.1920929e-07 0.011712568
0.0017531274 -8.9406967e-08 0.011712568
0.0022999702 -1.1920929e-07 0.011712568
0.0026645719 -1.1920929e-07 0.011712568
0.0030292033 -1.1920929e-07 0.011712568
0.00090099912 0.00029139683 0.011761025
0.0012589846 0.00019224662 0.011757051
0.0017542794 0.00012486716 0.011735012
0.0022537708 0.0001278189 0.011765072
0.0027314504 0.00013004773 0.011740306
0.0032339732 0.00015319326 0.011734867
0.0036567368 0.00032802109 0.01175046
0.00045615606 0.00094458816 0.011811621
0.00075132813 0.00075350871 0.011744156
0.0010701386 0.00057472952 0.011667536
0.0034942902 0.00050711946 0.011672809
0.0037737519 0.00073973142 0.011748732
0.0040694186 0.00083364273 0.011772703
0.00036171512 0.0013078048 0.011758452
0.0006401813 0.0011690999 0.011697467
0.0011654533 0.0012906648 0.011811583
0.003933229 0.0011357499 0.011716808
0.0041749035 0.0012667584 0.011739775
-4.6652007e-05 0.0018818143 0.011743729
0.00020684244 0.0017449784 0.011756319
0.00051479775 0.0015650633 0.011763876
0.0018137795 0.0016913523 0.011811583
0.0043138471 0.0017188803 0.011773566
0.0045859595 0.0018449578 0.01168852
-7.4366209e-05 0.0022291103 0.011819248
0.00015711982 0.0022896884 0.011754828
0.00050593563 0.0024859053 0.01174499
0.0043704892 0.0023211925 0.011740524
0.0046084435 0.0022516139 0.011725805
0.00030741328 0.0027288899 0.011758807
0.00055217411 0.0028127206 0.011759077
0.0039397441 0.0029249745 0.011747437
0.0041973167 0.0027460081 0.011753964
0.0045273206 0.0025856807 0.011764322
0.00045655237 0.0031281931 0.011752692
0.00071425928 0.0032813824 0.0117241
0.0010405503 0.0034904047 0.011808243
0.0038214088 0.0032983879 0.011749484
0.0040964363 0.0031838228 0.011726441
0.00085233105 0.0037154641 0.011778368
0.0011019742 0.0038203555 0.011772627
0.0017531274 0.0039838254 0.011712568
0.0022999702 0.0039838552 0.011712568
0.0026645719 0.0039838552 0.011712568
0.0033859489 0.0038906853 0.011767507
0.0036833491 0.0037462167 0.011737937
0.00095744076 0.0040848167 0.011699898
0.0012827613 0.0041018561 0.011730636
0.0017568179 0.0041136937 0.011767347
0.0022742706 0.0041124276 0.01175436
0.0027620837 0.0041133906 0.01177667
0.0032297964 0.0041106776 0.011747379
0.003616662 0.0040571061 0.011774943
0.0012062846 -1.1920929e-07 0.01225943
0.0017531274 -8.9406967e-08 0.01225943
0.0022999702 -1.1920929e-07 0.01225943
0.0026645719 -1.1920929e-07 0.01225943
0.0030292033 -1.1920929e-07 0.01225943
0.00088900712 0.00030341005 0.012255084
0.0012630911 0.00017093519 0.01226517
0.0017425473 0.00012408302 0.01225696
0.0022419614 0.00011890562 0.012218135
0.0027364683 0.00011910121 0.012239836
0.0032568788 0.00016413642 0.012258773
0.0036653269 0.00030927666 0.012243763
0.00046604648 0.00091682404 0.012212357
0.00075759343 0.00074735796 0.012262206
0.0010479052 0.00063265319 0.012233051
0.0037932754 0.00073126273 0.012234667
0.0040707914 0.00088505895 0.012256148
0.00034464899 0.0012914829 0.012259554
0.000623247 0.0011756822 0.012207873
0.0011654533 0.0012906648 0.012192666
0.0039223949 0.0011894024 0.012228123
0.0041862833 0.001267447 0.012254192
-8.0049496e-05 0.0018929106 0.012183364
0.00021267806 0.001742987 0.012264707
0.00055321393 0.0015186896 0.012147437
0.0018137795 0.0016913523 0.012192666
0.0043289461 0.0017253886 0.012259276
0.0046025501 0.0018544017 0.01224705
-0.00010776368 0.0021618688 0.012229427
0.00017535248 0.0023195813 0.012264633
0.0043777577 0.0022816416 0.012236748
0.0046309633 0.0022496874 0.012228995
0.00029461304 0.0027084856 0.012248462
0.00059667695 0.0028107432 0.012226776
0.0039410396 0.0028789935 0.012179157
0.004211985 0.0027321731 0.012249154
0.0045207855 0.0025567391 0.012299291
0.00044994769 0.0031007491 0.012239381
0.00070772908 0.0032628446 0.012261499
0.0038245963 0.0032852038 0.012264305
0.004121983 0.0031448463 0.012297407
0.00085027155 0.0037089176 0.012233715
0.0011322958 0.0038178198 0.012243727
0.0017531274 0.0039838254 0.01225943
0.0022999702 0.0039838552 0.01225943
0.0026645719 0.0039838552 0.01225943
0.0033896882 0.0038942844 0.012246503
0.00368512 0.0037244221 0.012239957
0.0040142615 0.0035540538 0.01231323
0.00096608786 0.0040741027 0.012294956
0.0012501997 0.0040923506 0.012247052
0.0017410298 0.0041035083 0.012265265
0.0022723028 0.0041077966 0.012270374
0.0027614727 0.0041001444 0.012262513
0.0032374384 0.0040964163 0.012247062
0.0036118666 0.0040899077 0.01231736
0.0012062846 -1.1920929e-07 0.012806293
0.0017531274 -8.9406967e-08 0.012806293
0.0022999702 -1.1920929e-07 0.012806293
0.0026645719 -1.1920929e-07 0.012806293
0.0030292033 -1.1920929e-07 0.012806293
0.00090256793 0.00028814047 0.012745515
0.0012356074 0.00018781811 0.012768765
0.0017341896 0.00011932662 0.012742017
0.0022646124 0.00012560637 0.012749688
0.0027730481 0.00012031745 0.012743737
0.003270291 0.00016382188 0.012741291
0.0036518485 0.00029888182 0.012714048
0.00044370012 0.00093719078 0.01275147
0.00073187781 0.00075597898 0.012750315
0.0010544087 0.00058130722 0.012677094
0.003767991 0.00072191993 0.012751674
0.0040574879 0.00088741601 0.012746894
0.00034965013 0.0012893914 0.012748811
0.00062797527 0.0012221429 0.012758907
0.0011654377 0.0012906902 0.012764274
0.0039289952 0.0011650055 0.012767804
0.0041785734 0.0012903472 0.012759412
-6.9125679e-05 0.0019203302 0.012725085
0.00020240604 0.0017386667 0.012785896
0.00053695613 0.0015613283 0.012631301
0.0018137638 0.0016913777 0.012764274
0.0043088761 0.0017010878 0.012766746
0.0045981505 0.0018793506 0.012731157
-0.00010448252 0.0021696677 0.012770595
0.00017494867 0.0022765133 0.012759531
0.0043552457 0.0023177303 0.01274381
0.0046404549 0.002239184 0.012720909
0.00032127029 0.0027337431 0.012759388
0.00060160103 0.0028428698 0.012728404
0.0039317273 0.0029083309 0.012815914
0.0042256964 0.0027386292 0.012770212
0.004554329 0.0025853242 0.012655717
0.00042906954 0.0031167574 0.012738626
0.00069849152 0.0032484336 0.012765327
0.0038443285 0.0032973029 0.012749553
0.0040941746 0.0031599842 0.012771908
0.00084173784 0.0037177196 0.012730924
0.001117327 0.0037867771 0.012752271
0.0017531274 0.0039838254 0.012806293
0.0022999702 0.0039838552 0.012806293
0.0026645719 0.0039838552 0.012806293
0.0033975593 0.0038683244 0.012750388
0.0037042848 0.0036883117 0.012779418
0.00094713486 0.0040540174 0.012714146
0.001274719 0.0041038534 0.012743135
0.0017647017 0.0041108229 0.012769374
0.0022452748 0.004098807 0.012781928
0.0027291132 0.0041077868 0.012754174
0.0032354714 0.0041009989 0.012763585
0.003587727 0.0040893555 0.012680725
0.0012062846 -1.1920929e-07 0.013170867
0.0017531274 -8.9406967e-08 0.013170867
0.0022999702 -1.1920929e-07 0.013170867
0.0026645719 -1.1920929e-07 0.013170867
0.0030292033 -1.1920929e-07 0.013170867
0.00088794471 0.00032990091 0.013246224
0.0012365187 0.00018821568 0.013239426
0.0017788565 0.00012579569 0.013250937
0.0022654703 0.00013004457 0.013260115
0.0027495411 0.00012723106 0.01325134
0.0032832581 0.0001712857 0.01323873
0.0036472834 0.00030660888 0.013236457
0.00043694465 0.00094565918 0.013290028
0.00072927715 0.00077434693 0.013255524
0.0010602683 0.00058447628 0.013273979
0.0037821438 0.00075248419 0.013228621
0.0040748352 0.00087725179 0.013237087
0.00036663009 0.0012652085 0.013254185
0.0006374084 0.0012042939 0.01323805
0.0011654533 0.0012906648 0.013335942
0.0039060817 0.0011219385 0.013316343
0.0041715531 0.0012704444 0.013216722
0.0045114341 0.0014540125 0.013366816
-6.300809e-05 0.0019108398 0.013306393
0.00021394568 0.0017335183 0.013238905
0.00051885552 0.0015202877 0.013472825
0.0018137795 0.0016913523 0.013335942
0.0042967433 0.001697483 0.013259167
0.0045934496 0.0018475511 0.013232108
-7.9714053e-05 0.002157951 0.013283002
0.00017874925 0.0023134798 0.013251317
0.0043817451 0.0022887138 0.013235891
0.0046227206 0.0022156422 0.013223059
0.00028750973 0.0027094195 0.013267587
0.00059029961 0.0028396517 0.013294291
0.0039510182 0.0028856557 0.013328462
0.0041975621 0.0027458321 0.013250734
0.0045426562 0.0025351758 0.013382317
0.0004320044 0.0031084488 0.013260332
0.00069142843 0.0032593131 0.013239059
0.0010282758 0.0033933537 0.013379158
0.0038142605 0.0032968146 0.01323123
0.004117927 0.0031317584 0.013260316
0.00086838327 0.0037187291 0.013249188
0.0011173891 0.0038107662 0.013208339
0.0017531274 0.0039838254 0.013170867
0.0022999702 0.0039838552 0.013170867
0.0026645719 0.0039838552 0.013170867
0.0033969232 0.0039114421 0.013238727
0.0036752592 0.0037312887 0.013254612
0.00093444966 0.0040488085 0.013178346
0.0012714957 0.0040892954 0.013249163
0.0017422417 0.004102964 0.0132261
0.0022296705 0.004110733 0.013264486
0.0027337931 0.0041055433 0.013240815
0.0032240732 0.0040929876 0.01325907
0.0036046114 0.0041080141 0.013290831
0.0012062846 -1.1920929e-07 0.01371773
0.0017531274 -8.9406967e-08 0.01371773
0.0022999702 -1.1920929e-07 0.01371773
0.0026645719 -1.1920929e-07 0.01371773
0.0030292033 -1.1920929e-07 0.01371773
0.00088419608 0.00030568952 0.013754399
0.0012326108 0.00017520069 0.013768419
0.0017351112 0.00011810911 0.013745076
0.0022690364 0.0001221454 0.013757666
0.0027597703 0.00011380389 0.013738874
0.0032601582 0.00015816951 0.013733541
0.0036808564 0.00030940626 0.013752796
0.00043141912 0.00094522815 0.013770647
0.00074447296 0.00074022944 0.013768273
0.0010515947 0.00063451071 0.013766153
0.0037638836 0.00071346341 0.013762262
0.0040849331 0.00094515283 0.01372408
0.00035737062 0.0012755053 0.013741963
0.00065084384 0.0011641105 0.013760866
0.0011654533 0.0012906648 0.013716995
0.0039269803 0.0011489411 0.013758675
0.0041879807 0.0012880033 0.01372821
-6.891894e-05 0.001878328 0.013789515
0.00019906121 0.0017594286 0.013720451
0.00053029921 0.0015563369 0.013688838
0.0018137795 0.0016913523 0.013716995
0.0043175584 0.0017198488 0.013738173
0.0045974026 0.0018654254 0.013777523
-7.588743e-05 0.0022054883 0.01379734
0.00016492518 0.0022955586 0.013757592
0.0043649548 0.0023004648 0.013736968
0.0046206955 0.0022597264 0.013752603
0.00031813912 0.0027279186 0.013726715
0.00060564803 0.0028583705 0.013707393
0.0039475611 0.0029329616 0.013773319
0.0042148847 0.0027345985 0.013732492
0.0045198621 0.0026173834 0.013781262
0.00042911505 0.0030869476 0.013780593
0.00070382009 0.0032477162 0.013757818
0.0038166079 0.0032795256 0.013738663
0.0040949127 0.0031577547 0.013780576
0.00084302051 0.0037078965 0.013754252
0.0011222704 0.0038107079 0.013748869
0.0017531274 0.0039838254 0.01371773
0.0022999702 0.0039838552 0.01371773
0.0026645719 0.0039838552 0.01371773
0.003393458 0.0038768111 0.013748665
0.0037090741 0.0037006335 0.013753961
0.00096506282 0.0040693232 0.013687733
0.0012901834 0.0041030762 0.013739318
0.0017544798 0.0041029919 0.013719288
0.002269757 0.00410472 0.01377556
0.0027587633 0.0041006575 0.013711059
0.00322508 0.0041027432 0.013752573
0.0035761816 0.0041144602 0.013716406
0.0012062846 -1.1920929e-07 0.014264592
0.0017531274 -8.9406967e-08 0.014264592
0.0022999702 -1.1920929e-07 0.014264592
0.0026645719 -1.1920929e-07 0.014264592
0.0030292033 -1.1920929e-07 0.014264592
0.0009038162 0.00028558937 0.014285067
0.0012500598 0.00019308177 0.014236413
0.0017375918 0.00012461876 0.014282059
0.00222548 0.00012200345 0.014246328
0.0027516324 0.00012629322 0.014279728
0.0032562122 0.00015583316 0.014255494
0.0036666624 0.00032436909 0.014235519
0.00046790441 0.00091644289 0.014288248
0.00073651073 0.00077523571 0.014263479
0.0010618099 0.0005643281 0.014292688
0.0034716274 0.00051114941 0.014079926
0.0037675055 0.00072627561 0.014244222
0.0040530297 0.0008407369 0.014230311
0.00033709448 0.0013199713 0.01423628
0.0006399019 0.001202353 0.014243447
0.0011654376 0.0012906902 0.014288603
0.0039443057 0.001196928 0.014218373
0.0041882824 0.0012971829 0.014262716
-6.4613472e-05 0.0019069331 0.014227412
0.00021362817 0.0017454865 0.014259845
0.00052180147 0.001543402 0.014341665
0.0018137638 0.0016913777 0.014288603
0.0043290025 0.0017575786 0.014245941
0.004595208 0.0018642035 0.014271458
-8.858629e-05 0.0021661567 0.014187569
0.00018260111 0.0023078516 0.014239751
0.0043767565 0.0022666806 0.014238163
0.0046280753 0.0022704976 0.014263191
0.00030874781 0.0027279009 0.014239452
0.00059526664 0.0027965393 0.01427822
0.0039747856 0.002885421 0.014209067
0.0042255423 0.0027435692 0.014265958
0.0004185104 0.0030771384 0.014273033
0.00068000704 0.0032760741 0.014268568
0.0010563881 0.0034743212 0.014175713
0.0038147015 0.0032824257 0.014277587
0.0040895185 0.0031550226 0.014237542
0.00085502019 0.0037194041 0.014251888
0.0011155981 0.003769313 0.014269272
0.0017531274 0.0039838254 0.014264592
0.0022999702 0.0039838552 0.014264592
0.0026645719 0.0039838552 0.014264592
0.0033741691 0.0038975377 0.014235513
0.0036812988 0.0037149128 0.014223805
0.00095564045 0.0040698783 0.014213023
0.0012356696 0.00409817 0.014224774
0.0017349808 0.0041057756 0.014259229
0.0022683886 0.0041097668 0.014238941
0.0027774402 0.0040999232 0.014262451
0.0032542599 0.0040993975 0.014261384
0.0036003417 0.0040985388 0.014182991
0.0012062846 -1.1920929e-07 0.014811454
0.0017531274 -8.9406967e-08 0.014811454
0.0022999702 -1.1920929e-07 0.014811454
0.0026645719 -1.1920929e-07 0.014811454
0.0030292033 -1.1920929e-07 0.014811454
0.00088795333 0.00030213574 0.014769218
0.0012123582 0.00017959542 0.014728136
0.0017536543 0.00011924822 0.014762454
0.0022538349 0.00012848679 0.014741281
0.0027397182 0.00012111849 0.014754464
0.0032665457 0.00016431951 0.014742621
0.003644299 0.00028974362 0.014746395
0.00046050036 0.00092552957 0.014827053
0.00073626387 0.00074506388 0.014728097
0.0010573911 0.00061929517 0.014732959
0.003493733 0.00053714029 0.014758567
0.0037828786 0.00073585589 0.014733986
0.0040782448 0.00090758537 0.014764785
0.00036204324 0.0012957299 0.014768451
0.00064324838 0.0011937415 0.014772729
0.0011654219 0.0012907155 0.014860212
0.0039280248 0.0011619063 0.014740939
0.0041749179 0.0012780051 0.014751796
-6.4670661e-05 0.0019228269 0.014731933
0.00019300144 0.0017566285 0.014762186
0.00052914198 0.0015711162 0.014671787
0.0018436384 0.0017350231 0.01493001
0.0027264415 0.0017786431 0.014999807
0.0031528531 0.0017786431 0.014999807
0.0043268129 0.0017182895 0.014757205
0.0046120672 0.0018317152 0.014760727
-9.9699013e-05 0.0021464694 0.01467814
0.00017785055 0.0022909613 0.014753415
0.0018735288 0.0024182892 0.014999807
0.0031528531 0.0024182892 0.014999807
0.0043940903 0.0022703169 0.014754157
0.0046502291 0.0022220595 0.014768812
0.00029934815 0.0027220536 0.01477533
0.00057516049 0.0028647268 0.014699616
0.0018735288 0.0028447199 0.014999807
0.0031528531 0.0028447199 0.014999807
0.0039623892 0.0028811826 0.01475238
0.0042029591 0.0027328266 0.014761506
0.0045217685 0.0025512327 0.014723756
0.00044218663 0.0031209143 0.014778246
0.00070540386 0.0032456194 0.014745106
0.0038065061 0.0033004312 0.01474475
0.0041018655 0.0031398293 0.014771303
0.0008602133 0.0036956968 0.01475328
0.0011208392 0.0038300841 0.014728677
0.0017531274 0.0039838254 0.014811454
0.0022999702 0.0039838552 0.014811454
0.0026645719 0.0039838552 0.014811454
0.0033864947 0.0038870787 0.014750169
0.003704401 0.0037255948 0.014734943
0.0040324945 0.0035151041 0.014742647
0.00096387562 0.0040669036 0.014682203
0.0012652337 0.0040857596 0.014736562
0.0017481114 0.0041077896 0.014744896
0.002228481 0.0041123275 0.014739866
0.0027382791 0.0041080751 0.014762963
0.0032687988 0.004095789 0.014731407
0.00358834 0.0040640091 0.01478056
0.0012062846 -1.1920929e-07 0.015358316
0.0017531274 -8.9406967e-08 0.015358316
0.0022999702 -1.1920929e-07 0.015358316
0.0026645719 -1.1920929e-07 0.015358316
0.0030292033 -1.1920929e-07 0.015358316
0.000888012 0.00030948344 0.015237507
0.001225499 0.00018406972 0.015248625
0.0017774034 0.00011988604 0.015245117
0.0022669397 0.00012027795 0.015233057
0.0027467345 0.0001212097 0.015238847
0.0032798313 0.00016306392 0.015231779
0.0036642887 0.00031023053 0.015239401
0.00044502362 0.0009475791 0.015262705
0.00072817568 0.00075931026 0.015253915
0.0010472434 0.00060332677 0.015226116
0.0034927146 0.00052606792 0.015432756
0.0037751147 0.00072292256 0.015248504
0.0040830108 0.00090565911 0.015298572
0.00034775498 0.0012816185 0.015248029
0.00063459564 0.0012010087 0.015274821
0.0011654533 0.0012906648 0.015241294
0.0039069392 0.0011428427 0.015202636
0.0041844817 0.0012811586 0.015252791
-5.8860729e-05 0.001924452 0.015268388
0.00019293001 0.0017628515 0.015239943
0.00055357773 0.0015541749 0.015290678
0.0018137795 0.0016913523 0.015241294
0.0023000001 0.0017786417 0.015000165
0.0043241419 0.0017360962 0.01525714
0.0046022129 0.0018696738 0.015220823
-8.0899568e-05 0.0022144681 0.015263894
0.00015882621 0.0023227842 0.015254961
0.0023000001 0.0024182922 0.015000165
0.0027264117 0.0024182922 0.015000165
0.004358415 0.0023160607 0.015267336
0.0046213567 0.0022523471 0.015200173
0.00031655497 0.002737687 0.015271924
0.0005902524 0.0028329275 0.015255678
0.0023000001 0.0028447257 0.015000165
0.0027264117 0.0028447257 0.015000165
0.0039466647 0.002905027 0.015311226
0.0042102262 0.0027422304 0.01524943
0.0045567374 0.0025318235 0.015276964
0.00043451632 0.0030880324 0.015247598
0.00069931016 0.0032646023 0.01524751
0.0038452956 0.0032742186 0.015238367
0.0041076411 0.0031122235 0.015259827
0.00083178317 0.0037041244 0.015259235
0.0011203487 0.0037890915 0.015273442
0.0017531274 0.0039838254 0.015358316
0.0022999702 0.0039838552 0.015358316
0.0026645719 0.0039838552 0.015358316
0.0034053219 0.0038717871 0.015260371
0.0036984263 0.0036846343 0.015249045
0.00096133427 0.0040828432 0.015259816
0.001259479 0.0040990203 0.015233328
0.0017569157 0.0041015865 0.015279794
0.0022678035 0.0041076867 0.015240624
0.0027630948 0.0041032978 0.015270915
0.0032335094 0.0041009341 0.015241654
0.0035780573 0.0040905457 0.015301233
0.0012062846 -1.1920929e-07 0.015722891
0.0017531274 -8.9406967e-08 0.015722891
0.0022999702 -1.1920929e-07 0.015722891
0.0026645719 -1.1920929e-07 0.015722891
0.0030292033 -1.1920929e-07 0.015722891
0.00090433966 0.00029912801 0.015714025
0.0012293849 0.00020342757 0.015755016
0.0017620064 0.0001213516 0.0157493
0.0022590186 0.00012873831 0.015712349
0.0027591616 0.00012093554 0.015740931
0.0032856583 0.00017332111 0.01575084
0.0036628104 0.00032511045 0.015727367
0.00043644095 0.00095040596 0.015752213
0.00072765065 0.00075681531 0.015767995
0.0010582036 0.00062169187 0.015709095
0.0037665726 0.00074022333 0.015763797
0.0040641907 0.000871739 0.015757261
0.00036615826 0.0013041747 0.015756346
0.00061824871 0.0012255275 0.015756141
0.0011654533 0.0012906648 0.015622376
0.00391501 0.0011813422 0.015758041
0.0041618329 0.0013000963 0.015760357
0.0045356899 0.0014902954 0.015785817
-5.0054336e-05 0.0018798342 0.015741352
0.00020623571 0.0017218484 0.015760982
0.00054820639 0.001558474 0.015818607
0.0018137795 0.0016913523 0.015622376
0.0043376642 0.001723503 0.015744908
0.0046096235 0.0018776807 0.015720773
-8.2341401e-05 0.0021629846 0.015746715
0.00017784638 0.0022906738 0.015757946
0.004368451 0.002285213 0.01573132
0.0046167839 0.0022350261 0.015764916
0.00029372863 0.0027208261 0.015759336
0.00058758771 0.0028171293 0.015760735
0.0039428077 0.0029339697 0.015746169
0.0042197411 0.0027430526 0.015761612
0.0045223944 0.0026330727 0.015561933
0.0004313493 0.0030843748 0.015748519
0.0006877791 0.0032794895 0.015757082
0.0010179671 0.0033701393 0.015762553
0.00380651 0.0032944805 0.015747622
0.0040992019 0.0031312627 0.015742652
0.00086147792 0.0037186458 0.015745884
0.0011053269 0.0038299698 0.015728015
0.0017531274 0.0039838254 0.015722891
0.0022999702 0.0039838552 0.015722891
0.0026645719 0.0039838552 0.015722891
0.0033975928 0.0039092409 0.015743097
0.0036877175 0.0037255269 0.015752709
0.00096606492 0.004045018 0.015807129
0.001280571 0.004089979 0.015729427
0.0017685852 0.0041051325 0.015762569
0.0022375791 0.0041125691 0.015754379
0.0027253777 0.004104014 0.015766136
0.0032431814 0.0040954077 0.015737042
0.0036019904 0.0040909471 0.015688181
0.0012062846 -1.1920929e-07 0.016269753
0.0017531274 -8.9406967e-08 0.016269753
0.0022999702 -1.1920929e-07 0.016269753
0.0026645719 -1.1920929e-07 0.016269753
0.0030292033 -1.1920929e-07 0.016269753
0.00089379965 0.00030191813 0.016258767
0.0012197411 0.00018391054 0.016244341
0.0017419069 0.00012084354 0.016254801
0.0022687826 0.00011905623 0.016235963
0.0027674991 0.00011745024 0.016266717
0.0032788722 0.00016231461 0.016251173
0.0036583624 0.00031505432 0.016245112
0.00047003501 0.0009053715 0.016212562
0.00072093029 0.00075249636 0.016245168
0.0010581684 0.00062898861 0.016326115
0.0037961241 0.00073819287 0.016244758
0.0040974934 0.00091672182 0.016323021
0.00034847794 0.001295615 0.016263792
0.00061331876 0.0012221246 0.016213341
0.0011654377 0.0012906902 0.016193971
0.0039195223 0.0011873872 0.016283585
0.0041652941 0.0012766522 0.016255023
-9.6176125e-05 0.0019328308 0.01621585
0.00018907124 0.0017703766 0.0162504
0.00052728248 0.0015639017 0.016378883
0.0018137636 0.0016913777 0.016193971
0.0043112822 0.0017317791 0.016253173
0.0046086144 0.001867039 0.016271282
-9.2949071e-05 0.0021754741 0.016290668
0.00016319689 0.0023134979 0.016276784
0.0043723099 0.002287338 0.016246976
0.0046280106 0.0022243652 0.016258584
0.00030473739 0.002736764 0.016231621
0.00059753726 0.0028678477 0.016221158
0.0039543379 0.0028937042 0.016216531
0.0042291046 0.0027349938 0.016261375
0.0046120971 0.0025354775 0.016093031
0.00040963973 0.0030676927 0.016256673
0.00069894805 0.0032637024 0.016251836
0.0038231821 0.0032663827 0.016249662
0.0041093058 0.0031486107 0.016255045
0.00086125423 0.0037167678 0.016262367
0.0011356348 0.0038053442 0.016263597
0.0017531274 0.0039838254 0.016269753
0.0022999702 0.0039838552 0.016269753
0.0026645719 0.0039838552 0.016269753
0.0033901748 0.0038855083 0.016238939
0.0036915885 0.0037046452 0.016278744
0.0040083528 0.0035586921 0.0162342
0.00096452393 0.0040527256 0.016188351
0.0012977598 0.0041006855 0.016252536
0.0017628616 0.0041030319 0.016267823
0.002262322 0.0041015842 0.016254066
0.0027525856 0.0041023651 0.016260413
0.0032116533 0.0040998328 0.016251765
0.0035829707 0.0040943036 0.016227242
0.0012062846 -1.1920929e-07 0.016816614
0.0017531274 -8.9406967e-08 0.016816614
0.0022999702 -1.1920929e-07 0.016816614
0.0026645719 -1.1920929e-07 0.016816614
0.0030292033 -1.1920929e-07 0.016816614
0.0008951308 0.00030825095 0.016791593
0.0012340538 0.00020591052 0.016739754
0.001726147 0.00016323634 0.016782373
0.0022552127 0.00015456868 0.016754441
0.0027354462 0.00016508768 0.0167829
0.0032560842 0.00018768212 0.016755773
0.0036741954 0.00032684382 0.016753983
0.00045448463 0.00094599929 0.016688427
0.00075455121 0.00076790783 0.016760457
0.001202156 0.00072658894 0.016870186
0.0017234918 0.0007300647 0.016899092
0.0022522507 0.00071049103 0.01690237
0.0027153906 0.00075593259 0.016932504
0.0032206941 0.00074725645 0.016913356
0.0037390769 0.00074852933 0.016772812
0.0040776636 0.00087489642 0.016786907
0.00034873863 0.0012930271 0.016722104
0.00070837687 0.0012179362 0.016827634
0.0012358308 0.0012558376 0.01689476
0.0016786809 0.0011836919 0.016914865
0.0021670745 0.0010843545 0.016917219
0.0027519276 0.0012248526 0.016954144
0.0032236006 0.0012132935 0.016939474
0.0038134246 0.0012184982 0.016846251
0.004177155 0.0013006517 0.016754869
-5.7297497e-05 0.001894176 0.016721023
0.00022744924 0.0017657436 0.016798634
0.00073805574 0.0017527912 0.016904119
0.0011962451 0.0017717673 0.016902156
0.001813748 0.0016914031 0.016765565
0.0032634549 0.0017225364 0.016940175
0.003725952 0.0017531596 0.016914036
0.004270806 0.0017495885 0.016784301
0.0045976168 0.0018549872 0.016720373
-8.2078557e-05 0.0021435854 0.016750315
0.00021437729 0.0022846116 0.016787538
0.00076658727 0.0022570642 0.016909562
0.0011930267 0.0023023186 0.01692304
0.0032792366 0.0022543783 0.016912028
0.0037056077 0.0022607918 0.016913813
0.0043194387 0.0023013873 0.016771169
0.0046450659 0.0022240274 0.016725251
0.00031744258 0.002720261 0.016760346
0.00072148128 0.0027583705 0.016858248
0.0012097291 0.0027558568 0.016909493
0.0016678208 0.0029102648 0.016922301
0.0028456543 0.0029013986 0.016910812
0.003255375 0.0027621202 0.016891437
0.0038004485 0.0027975913 0.016840843
0.0041807741 0.0027390055 0.016763864
0.0045314752 0.0026302533 0.016613942
0.00041992869 0.0030637369 0.016743736
0.00073762459 0.003271647 0.016779805
0.0012153042 0.0032521088 0.016887611
0.0017307205 0.0032654051 0.016890246
0.0022702115 0.0032514243 0.016899332
0.002753152 0.0032513756 0.016901236
