# .PCD v0.7 - Point Cloud Data file format
VERSION 0.7
FIELDS x y z
SIZE 4 4 4
TYPE F F F
COUNT 1 1 1
WIDTH 1200
HEIGHT 1
VIEWPOINT 0 0 0 1 0 0 0
POINTS 1200
DATA ascii
0.0032257729 0.0030034161 4.2675136e-05
0.0033500188 0.0030034161 4.2675136e-05
0.0034743242 0.0030033849 4.2725835e-05
0.0035985701 0.0030034161 4.2675136e-05
0.0037228458 0.0030033849 4.2725835e-05
0.0038470619 0.0030033849 4.2725835e-05
0.0039713373 0.0030034161 4.2675136e-05
0.004095613 0.0030033849 4.2725835e-05
0.0042198589 0.0030033849 4.2725835e-05
0.0043441644 0.0030034161 4.2675136e-05
0.0044683805 0.0030033849 4.2725835e-05
0.004592686 0.0030033535 4.2776534e-05
0.004716902 0.0030034161 4.2675136e-05
0.0048671556 0.0030309656 6.03935e-05
0.0049518654 0.003043944 4.0353894e-05
0.0050516361 0.0030441955 4.7568603e-05
0.0051458008 0.0030524475 3.715303e-05
0.0052485433 0.0030512754 4.1362338e-05
0.005331798 0.0030537623 3.2395357e-05
0.005462246 0.0030547709 2.981822e-05
0.0055571795 0.0030553516 3.6912254e-05
0.0056586768 0.0030494248 3.8888058e-05
0.0057529556 0.0030396702 3.5172452e-05
0.0058425241 0.0030414392 4.1089319e-05
0.0059514702 0.0030459443 3.879474e-05
0.0060570338 0.0030653579 3.8490409e-05
0.006133425 0.003072904 3.7199203e-05
0.0062336656 0.0030484628 4.4346609e-05
0.006349477 0.0030533932 3.133282e-05
0.0064472007 0.0030512428 3.8747468e-05
0.0065535307 0.0030334191 4.0233721e-05
0.0066425386 0.0030582843 3.4281864e-05
0.0067588612 0.0030566852 3.7641559e-05
0.0068575474 0.0030402946 3.4982313e-05
0.0069506769 0.0030459971 3.8815891e-05
0.0070544183 0.0030508917 3.3724209e-05
0.0071485736 0.0030491811 3.6546684e-05
0.0072509735 0.0030404795 3.6544203e-05
0.0073574432 0.0030478069 5.0743958e-05
0.0074225101 0.0030561665 4.9999155e-05
-4.8503757e-06 0.0031572781 5.1405492e-05
4.829896e-05 0.003158805 5.4047399e-05
0.00014210533 0.003155573 3.413883e-05
0.0002488828 0.003143036 4.5604538e-05
0.00033888908 0.0031531968 3.3963766e-05
0.00044539385 0.0031469676 2.8091961e-05
0.000548048 0.0031585738 3.9031638e-05
0.00065236562 0.0031446163 3.4797347e-05
0.00076171866 0.0031503711 4.1371259e-05
0.0008459838 0.0031471897 2.0360969e-05
0.00094269618 0.0031466621 4.1941476e-05
0.0010302289 0.0031563267 3.9772855e-05
0.0011612606 0.0031543488 2.9856054e-05
0.0012512275 0.0031538457 4.3535896e-05
0.0013599523 0.0031462652 4.01937e-05
0.0014552594 0.0031439669 4.5441546e-05
0.0015550532 0.00315257 3.4463577e-05
0.0016515992 0.0031537032 3.5340076e-05
0.0017440127 0.0031458216 3.2129858e-05
0.0018584126 0.0031570818 3.1991029e-05
0.0019587495 0.0031387089 2.9488503e-05
0.002043504 0.0031440309 3.1081763e-05
0.002148753 0.0031560124 3.7915499e-05
0.0022430315 0.0031373755 3.7076414e-05
0.002338049 0.0031402055 4.3948377e-05
0.0024337331 0.0031405294 4.4295168e-05
0.0025319357 0.0031416279 5.1482206e-05
0.0048927246 0.0031346851 4.8820577e-05
0.0049542226 0.0031440808 5.2838659e-05
0.0050563477 0.0031463918 3.6928486e-05
0.005153174 0.0031554208 3.9403516e-05
0.0052492358 0.003143149 3.6929738e-05
0.0053290124 0.0031474705 3.6623685e-05
0.0054522757 0.0031585372 3.3974982e-05
0.0055530644 0.0031598974 3.7397022e-05
0.0056565055 0.003150349 3.5261335e-05
0.0057622488 0.0031511551 3.3706812e-05
0.0058498103 0.0031436521 3.08442e-05
0.0059395162 0.0031408942 3.2617896e-05
0.0060458584 0.0031581693 3.4416171e-05
0.0061573363 0.0031376998 2.6577622e-05
0.0062336177 0.0031385908 3.5468944e-05
0.0063460623 0.0031531262 3.7539703e-05
0.006446565 0.0031528771 3.5796133e-05
0.006540806 0.0031461474 3.7061185e-05
0.0066346903 0.003143478 3.1411131e-05
0.0067577418 0.0031598678 3.1298794e-05
0.00684737 0.0031429827 3.4987592e-05
0.0069360584 0.0031443641 3.6014648e-05
0.0070372941 0.0031533043 2.9037668e-05
0.0071497275 0.0031446489 3.4822227e-05
0.007246579 0.0031461876 2.9836339e-05
0.0073523386 0.0031452808 4.9155526e-05
0.0074245175 0.0031613703 4.7304213e-05
-1.613226e-05 0.0032459595 5.7051144e-05
4.3347038e-05 0.0032588586 5.0130351e-05
0.00015469966 0.0032546017 4.203818e-05
0.00023503565 0.0032588837 3.717345e-05
0.00033881335 0.0032481954 3.551062e-05
0.00045587405 0.0032501249 4.1839372e-05
0.00054576719 0.0032628796 3.8758382e-05
0.00066623371 0.0032449386 3.3618206e-05
0.00075219193 0.0032597503 4.8519567e-05
0.00083569688 0.0032586195 3.8223996e-05
0.00095208007 0.0032545517 3.7195427e-05
0.0010495631 0.0032605506 3.8858441e-05
0.0011421506 0.0032566639 2.9161711e-05
0.0012517379 0.0032525815 4.0587674e-05
0.0013501198 0.0032421618 3.3726632e-05
0.0014574557 0.0032457919 3.5333665e-05
0.0015442411 0.0032491428 4.3992655e-05
0.0016404608 0.0032476676 3.7096579e-05
0.0017556066 0.0032493405 3.8851096e-05
0.0018661655 0.0032620486 4.7826499e-05
0.0019483039 0.0032413767 3.8300346e-05
0.0020655745 0.0032429225 3.3186305e-05
0.0021480948 0.003235854 3.380968e-05
0.0022562225 0.0032418887 3.5257966e-05
0.0023514058 0.0032448024 4.7125232e-05
0.0024578755 0.0032322137 5.3321892e-05
0.0025065108 0.0032202848 3.3893437e-05
0.0049571232 0.0032414661 3.712557e-05
0.0050604013 0.0032515202 4.1909985e-05
0.0051443144 0.0032497765 4.6597324e-05
0.0052500376 0.0032512147 3.9455936e-05
0.0053319056 0.0032562201 3.3246812e-05
0.0054602046 0.0032452147 3.7877744e-05
0.0055527431 0.0032608134 3.373775e-05
0.0056556989 0.0032541752 3.0370769e-05
0.0057688607 0.0032469458 3.7064416e-05
0.0058419472 0.0032523384 3.9988638e-05
0.0059502479 0.0032448517 3.8888051e-05
0.0060561756 0.0032383611 3.4470646e-05
0.0061434885 0.003246075 4.0270963e-05
0.0062409788 0.003239637 3.6465892e-05
0.0063677086 0.0032496392 3.0739207e-05
0.0064574867 0.0032515156 3.8576934e-05
0.0065497695 0.0032479265 3.8757047e-05
0.0066490974 0.0032417602 3.5933135e-05
0.0067553301 0.0032479528 3.6492547e-05
0.006857146 0.0032470315 3.753959e-05
0.0069498131 0.0032493733 3.4719997e-05
0.0070439051 0.0032449034 3.7182261e-05
0.0071491562 0.0032526869 3.5493613e-05
0.0072470796 0.0032418566 3.8217033e-05
0.0073644379 0.0032488003 4.3983055e-05
0.0074342466 0.0032674479 5.7001504e-05
-2.2837656e-05 0.0033525785 5.7603087e-05
4.0555293e-05 0.0033636217 4.4999637e-05
0.00014432434 0.0033499359 3.3156506e-05
0.0002411528 0.0033367239 4.0834922e-05
0.00034166587 0.0033624519 3.5895042e-05
0.00044785114 0.0033382478 3.5530713e-05
0.00055650558 0.0033433456 3.8484133e-05
0.00066900521 0.0033496646 3.1171821e-05
0.00074862316 0.0033267085 4.0414157e-05
0.00082924758 0.0033453999 4.386378e-05
0.00094121206 0.0033506041 2.8565597e-05
0.0010576368 0.0033497543 4.5250577e-05
0.0011604999 0.0033445028 3.3688113e-05
0.0012432843 0.003348598 3.8855454e-05
0.0013613475 0.0033486953 3.4970664e-05
0.0014614995 0.0033559508 3.1478041e-05
0.0015347346 0.0033493559 4.0755647e-05
0.0016527837 0.0033613606 2.9851002e-05
0.0017542088 0.003354915 3.0396321e-05
0.0018702188 0.003350077 5.4657758e-05
0.0019451251 0.0033652917 3.738853e-05
0.0020429005 0.00333622 3.4158809e-05
0.0021622749 0.0033434269 4.5363769e-05
0.0022497347 0.0033609758 3.3629676e-05
0.0023379289 0.0033578987 3.1671087e-05
0.0024321082 0.0033567748 4.3290274e-05
0.0050677815 0.0033630412 4.3346947e-05
0.0051354775 0.0033572167 3.9535604e-05
0.0052574989 0.0033674606 3.6986054e-05
0.0053515243 0.0033583997 3.3363696e-05
0.0054613869 0.0033514944 3.5916113e-05
0.005545977 0.0033307925 3.6206093e-05
0.0056544184 0.0033541005 3.6569014e-05
0.0057700728 0.0033552421 3.8300434e-05
0.005849177 0.0033512798 4.0287665e-05
0.0059383437 0.0033491449 3.3075466e-05
0.0060542659 0.0033490807 3.3693781e-05
0.0061430261 0.0033384466 2.547771e-05
0.0062386654 0.0033482623 3.8306633e-05
0.0063552819 0.0033415784 3.5373578e-05
0.0064508575 0.0033428343 4.0304581e-05
0.0065462058 0.0033482928 3.1553041e-05
0.0066457335 0.0033448231 3.7794856e-05
0.0067532682 0.0033454897 2.9364995e-05
0.0068607782 0.0033529347 3.9512772e-05
0.006952507 0.0033499333 3.1217176e-05
0.0070423428 0.0033491359 3.2709824e-05
0.0071452595 0.0033523482 3.9116196e-05
0.007245827 0.0033473917 3.6104895e-05
0.007367278 0.0033565862 3.5659592e-05
0.0074483408 0.0033581727 5.340104e-05
-2.3732167e-05 0.003440171 4.1739957e-05
3.4275239e-05 0.0034584771 4.1590403e-05
0.00014355019 0.0034450088 3.7536382e-05
0.00025553888 0.0034487394 3.6196212e-05
0.00035367877 0.0034606447 4.5178953e-05
0.0004592773 0.0034370371 3.8209037e-05
0.00055460719 0.003459113 4.0286712e-05
0.00066527154 0.0034502901 3.9110542e-05
0.00075702526 0.0034374925 4.9961691e-05
0.00083092932 0.0034394662 2.8224391e-05
0.0009515282 0.0034415231 4.2948424e-05
0.0010543122 0.0034422437 4.2306849e-05
0.0011431191 0.0034493355 3.9397961e-05
0.001255246 0.0034624992 4.2778865e-05
0.0013544437 0.0034367011 4.987124e-05
0.0014269465 0.0034529455 4.5227964e-05
0.0015432797 0.0034639745 4.5058598e-05
0.0016347874 0.0034470058 3.1407188e-05
0.0017570872 0.0034458966 3.4971265e-05
0.0018660084 0.003444124 4.4525888e-05
0.0019333984 0.0034714218 2.0867588e-05
0.002051394 0.0034678255 4.7623405e-05
0.0021608686 0.0034616918 3.9131988e-05
0.0022498865 0.0034629616 4.22515e-05
0.0023432854 0.003465232 4.4263015e-05
0.0024208361 0.003466829 6.1131082e-05
0.0050539104 0.0034467489 4.6603633e-05
0.0051527037 0.0034569032 5.3740932e-05
0.0052416809 0.0034527199 2.9524184e-05
0.0053343126 0.0034434579 3.197054e-05
0.0054564872 0.0034452183 3.8975264e-05
0.0055460399 0.0034317668 3.1371332e-05
0.0056564501 0.0034445461 4.0643685e-05
0.0057761013 0.0034528356 3.2457086e-05
0.0058448296 0.0034363396 2.9994691e-05
0.0059380471 0.0034422711 4.5237644e-05
0.006054854 0.0034376201 3.708986e-05
0.006150886 0.0034396837 2.8251945e-05
0.0062377132 0.003445151 4.1845e-05
0.0063689123 0.003433388 2.997324e-05
0.0064609624 0.0034460302 3.3671888e-05
0.0065534883 0.0034423224 3.1711646e-05
0.0066512292 0.0034557232 3.4408567e-05
0.0067541618 0.0034449275 3.859006e-05
0.0068472968 0.0034434665 3.3599161e-05
0.0069351764 0.0034424269 4.078737e-05
0.0070418962 0.003459471 3.1443942e-05
0.0071523413 0.0034485259 3.7996186e-05
0.0072479672 0.0034456865 3.6132904e-05
0.0073610214 0.0034554915 3.1003419e-05
0.0074615949 0.0034539339 5.1173152e-05
0.0075233607 0.003478254 4.4748842e-05
-2.4525027e-05 0.0035608578 5.4142438e-05
3.3458833e-05 0.0035496806 3.7960228e-05
0.00013747961 0.003545753 2.5830241e-05
0.00025448677 0.0035419995 4.5316017e-05
0.00036379241 0.0035371026 4.1005293e-05
0.00044973122 0.0035437136 3.6108915e-05
0.00055167481 0.0035549449 4.4767439e-05
0.00066694693 0.0035363932 2.3020646e-05
0.00073643622 0.0035607687 5.0318446e-05
0.000836197 0.0035580897 4.6844645e-05
0.00094914035 0.0035489732 2.793875e-05
0.0010558172 0.0035448892 3.5772904e-05
0.0011548491 0.003518502 3.6274021e-05
0.0012422388 0.0035448617 4.0050698e-05
0.0013633852 0.0035332753 3.3191369e-05
0.0014557329 0.0035365957 3.5306195e-05
0.0015327596 0.0035496412 4.2638254e-05
0.0016546879 0.0035509779 3.6634312e-05
0.0017526039 0.0035428554 3.4805173e-05
0.0018680695 0.003554879 5.2974818e-05
0.0019416201 0.003531852 3.0372243e-05
0.0020400414 0.0035518892 4.3361615e-05
0.0021560097 0.003544583 4.5905872e-05
0.0022607008 0.0035415462 3.8465743e-05
0.0023347693 0.003539759 5.4778426e-05
0.0024113236 0.0035571 7.7789387e-05
0.0050816801 0.0035540171 4.4421147e-05
0.0051601124 0.0035402672 4.1453346e-05
0.0052486314 0.0035475227 4.5586985e-05
0.0053383578 0.0035315743 3.6972302e-05
0.0054602507 0.0035373487 3.4467619e-05
0.0055457102 0.0035414705 3.6396432e-05
0.0056542968 0.0035509127 3.0932526e-05
0.0057686898 0.0035486708 4.0064249e-05
0.0058407751 0.0035475288 3.9160877e-05
0.005934793 0.0035532059 3.5883921e-05
0.0060460204 0.003532361 3.4658693e-05
0.0061502722 0.0035499719 3.1108404e-05
0.0062344437 0.0035414484 3.6114339e-05
0.0063570654 0.0035329922 3.7170626e-05
0.006454695 0.0035479069 4.6509085e-05
0.006555012 0.0035500536 3.5879439e-05
0.0066497335 0.0035537693 3.3547476e-05
0.0067407885 0.0035634264 3.6651127e-05
0.006849993 0.0035493304 3.5335353e-05
0.0069499193 0.0035337845 2.656331e-05
0.0070392238 0.0035435001 3.9940103e-05
0.0071525327 0.0035432698 3.6468162e-05
0.0072425487 0.0035418717 3.1107029e-05
0.0073571475 0.0035388593 3.8321905e-05
0.0074584535 0.0035458952 5.3507141e-05
0.0075041582 0.0035896376 4.459843e-05
-3.3145752e-05 0.0036638053 4.431267e-05
3.7118298e-05 0.0036542432 4.0932122e-05
0.00014597269 0.003655663 3.9085866e-05
0.00024914497 0.003658935 3.2370852e-05
0.0003553562 0.003656067 3.9144339e-05
0.00044438234 0.0036613855 3.6634938e-05
0.00055480731 0.0036535775 3.4631394e-05
0.00065936998 0.0036587785 3.3341094e-05
0.00073352229 0.0036193221 3.2534637e-05
0.00084137305 0.0036462343 3.3970668e-05
0.00095077045 0.003652269 3.6800542e-05
0.0010637176 0.0036449248 4.7357549e-05
0.0011561167 0.0036571382 3.9129874e-05
0.0012492226 0.0036369374 3.8407274e-05
0.0013418568 0.0036460245 4.4528384e-05
0.0014262615 0.0036485915 3.5366229e-05
0.0015454809 0.0036324027 4.3358566e-05
0.0016480339 0.0036492874 2.7543183e-05
0.0017591811 0.0036387562 3.7423888e-05
0.0018658084 0.0036507873 4.504509e-05
0.0019313749 0.0036489361 2.9618537e-05
0.0020527861 0.0036345099 4.0707499e-05
0.0021619911 0.003632054 3.0966796e-05
0.0022591776 0.003644038 5.1908464e-05
0.0023447906 0.0036321466 4.9872575e-05
0.002407762 0.0036624854 2.6978234e-05
0.0050686761 0.0036489146 6.9223745e-05
0.0051568178 0.003642176 5.3261065e-05
0.0052475552 0.0036471921 3.0974978e-05
0.0053447592 0.0036488026 3.5777419e-05
0.0054562343 0.0036499002 3.4926397e-05
0.0055402606 0.003653822 3.8823895e-05
0.0056581651 0.0036517642 3.3294546e-05
0.0057711098 0.0036576902 3.8135644e-05
0.0058419779 0.0036563708 3.6642447e-05
0.0059379763 0.0036614959 3.0914431e-05
0.0060479515 0.0036434715 3.5269917e-05
0.0061459299 0.0036590279 3.4826211e-05
0.0062424755 0.0036527172 3.2818316e-05
0.0063558477 0.0036596975 3.513123e-05
0.0064593083 0.0036491379 3.2225507e-05
0.0065584932 0.0036493873 3.5718334e-05
0.0066565494 0.0036649483 3.6075511e-05
0.0067436663 0.0036428296 3.9343849e-05
0.0068515334 0.003640214 3.7895396e-05
0.006941543 0.0036477793 3.5433979e-05
0.0070405402 0.0036425868 3.3588032e-05
0.0071544209 0.0036533526 3.4003333e-05
0.0072487667 0.0036543515 3.3035318e-05
0.0073663648 0.0036436152 3.2526925e-05
0.0074620689 0.0036506327 5.2151983e-05
0.0075102202 0.0036486553 4.9679475e-05
-3.1971183e-05 0.0037572922 4.9210772e-05
2.4850036e-05 0.0037517929 4.5367058e-05
0.00015551379 0.0037690264 3.6209149e-05
0.00026649321 0.0037544267 4.016353e-05
0.0003527237 0.0037494348 3.6354664e-05
0.00043636662 0.003744923 3.1215561e-05
0.0005487231 0.0037519205 4.7488007e-05
0.00064799486 0.0037612501 3.9474704e-05
0.00074553018 0.0037505764 3.3027987e-05
0.00085018063 0.0037469615 4.9118316e-05
0.00095044769 0.003746812 3.26802e-05
0.0010646681 0.0037466469 3.6509577e-05
0.0011591538 0.0037717719 2.4269882e-05
0.001240293 0.0037566232 3.888096e-05
0.0013599569 0.0037496684 3.9302959e-05
0.0014189259 0.0037517648 2.5982439e-05
0.0015484807 0.0037532356 3.5767407e-05
0.0016627074 0.003745388 3.6404279e-05
0.001769826 0.0037444932 3.7513815e-05
0.0018768127 0.0037472313 5.9237456e-05
0.0019175536 0.0037466255 3.20252e-05
0.0020517868 0.003749484 2.8621374e-05
0.0021542038 0.0037507368 3.9855997e-05
0.0022451137 0.0037616829 4.963002e-05
0.0023414416 0.0037475417 4.7546189e-05
0.0024010155 0.0037691072 3.146406e-05
0.005063659 0.0037582393 7.465385e-05
0.005170377 0.0037522223 4.9726248e-05
0.0052467603 0.0037460129 3.8201459e-05
0.005334653 0.0037624175 3.3551969e-05
0.0054547857 0.0037546873 3.8097198e-05
0.0055424646 0.0037416099 3.6062873e-05
0.0056448909 0.0037430688 3.4782923e-05
0.0057670921 0.0037515764 3.6826397e-05
0.0058566895 0.0037537573 4.0966013e-05
0.0059422883 0.0037484118 3.8641359e-05
0.0060442137 0.0037507094 4.2030457e-05
0.0061558583 0.0037479431 3.1951586e-05
0.0062457994 0.0037528526 3.4909815e-05
0.0063487785 0.0037602277 3.7318146e-05
0.0064542792 0.0037531203 3.3094981e-05
0.0065583428 0.0037451827 3.8423568e-05
0.0066482262 0.0037622491 3.3734403e-05
0.0067439354 0.0037497955 2.9233859e-05
0.0068448395 0.0037478025 3.8288519e-05
0.00694439 0.0037554402 2.7158576e-05
0.0070440504 0.0037465005 3.3441982e-05
0.0071433987 0.0037480821 3.6487672e-05
0.007248906 0.0037519988 3.7069931e-05
0.0073648454 0.0037542675 3.2321579e-05
0.0074564964 0.0037578638 5.4426742e-05
0.0075103524 0.0037562838 3.7546215e-05
-3.5468907e-05 0.0038530831 5.0126589e-05
4.2675074e-05 0.0038342425 4.2569613e-05
0.00014705458 0.0038535325 3.0188485e-05
0.00025707087 0.00385581 3.2776672e-05
0.00035191741 0.0038689072 5.2315692e-05
0.00043469542 0.0038417177 3.9138671e-05
0.00055083656 0.003855478 4.3636144e-05
0.0006414961 0.0038484198 2.2164682e-05
0.00074823014 0.0038692334 4.2961088e-05
0.00086156244 0.0038626832 4.1593874e-05
0.00095070078 0.0038542561 3.2030013e-05
0.0010563361 0.0038382055 3.5403325e-05
0.0011295255 0.0038456935 5.2265845e-05
0.0012307646 0.0038636383 4.5655452e-05
0.0013616649 0.0038615789 3.9654573e-05
0.0014347963 0.0038543448 3.8194561e-05
0.0015435041 0.0038637025 3.682543e-05
0.0016518494 0.0038550224 3.0951425e-05
0.0017602664 0.0038638536 3.5693538e-05
0.001859408 0.0038586915 4.4088934e-05
0.0019252267 0.0038525327 2.8602286e-05
0.0020441934 0.0038586732 3.80567e-05
0.0021576711 0.0038653896 4.2219584e-05
0.0022530397 0.003851573 4.6849578e-05
0.0023451662 0.0038600063 4.7613928e-05
0.0024055699 0.0038195585 4.6444758e-05
0.005072121 0.0038538207 6.8990194e-05
0.0051636621 0.0038559798 4.9771465e-05
0.0052412474 0.0038571754 4.0516003e-05
0.0053434828 0.0038468018 3.5649129e-05
0.0054619182 0.0038642054 3.5684025e-05
0.0055436585 0.0038503644 3.4176293e-05
0.0056458637 0.0038558741 3.5932313e-05
0.0057590706 0.0038458982 3.7600188e-05
0.0058431732 0.0038656967 3.8869959e-05
0.0059392019 0.0038454421 3.6048801e-05
0.00605501 0.0038509348 3.4495853e-05
0.0061428025 0.0038522952 3.4358211e-05
0.0062398189 0.0038539581 3.8476286e-05
0.0063473615 0.0038491669 3.7112e-05
0.0064503686 0.0038534631 3.4102912e-05
0.0065642451 0.0038515581 3.5680197e-05
0.0066507147 0.0038483141 4.1429423e-05
0.00674784 0.0038554708 3.2495151e-05
0.0068436861 0.0038573174 3.5527668e-05
0.0069415895 0.0038450549 3.5289886e-05
0.0070462632 0.0038573344 3.1755892e-05
0.0071475334 0.0038509802 3.7294878e-05
0.0072481232 0.0038527327 2.829699e-05
0.007365495 0.0038520233 3.5911886e-05
0.0074558593 0.0038489082 6.0023031e-05
0.0075022019 0.0038327964 2.7580123e-05
-3.9514722e-05 0.0039360994 5.3798136e-05
4.1873955e-05 0.0039506634 3.7400783e-05
0.00016153973 0.0039480752 3.6783436e-05
0.00026934812 0.0039463751 3.389463e-05
0.00036545677 0.0039499607 5.080254e-05
0.00043261016 0.0039366977 3.1536165e-05
0.00054791936 0.003946851 3.7234913e-05
0.00065076241 0.0039412584 3.6307578e-05
0.00073455111 0.0039583719 3.1468575e-05
0.00086294219 0.003938756 3.585402e-05
0.00096376124 0.0039467034 3.852004e-05
0.0010517427 0.003961964 3.6060999e-05
0.0011513788 0.0039377203 3.9055936e-05
0.0012450954 0.0039500422 3.7611931e-05
0.0013516947 0.0039479188 4.3642965e-05
0.001439146 0.0039503546 3.4194432e-05
0.0015503302 0.0039452841 4.003054e-05
0.0016643077 0.0039526755 3.7810656e-05
0.0017690572 0.003953706 3.1993899e-05
0.0018677004 0.0039603994 4.3428481e-05
0.0019235822 0.0039724107 4.049046e-05
0.0020475353 0.0039609713 3.5012919e-05
0.0021608246 0.0039622732 2.0990024e-05
0.0022600202 0.0039486145 4.8271158e-05
0.0023526524 0.0039581968 4.3133467e-05
0.0050712256 0.0039304616 5.3049567e-05
0.0051636212 0.0039654849 4.9389797e-05
0.0052453307 0.0039543561 3.256301e-05
0.0053385985 0.0039488086 3.8394362e-05
0.0054698098 0.0039501544 3.746503e-05
0.0055625886 0.0039573391 4.1655996e-05
0.0056541604 0.0039594863 3.0242149e-05
0.005761255 0.0039463034 3.7646969e-05
0.0058554928 0.0039420198 3.5500823e-05
0.005947222 0.003955232 3.064565e-05
0.0060504698 0.0039430102 3.5401677e-05
0.006143895 0.0039420445 3.5891582e-05
0.0062373755 0.0039534676 3.7624835e-05
0.0063480884 0.0039400999 3.2012751e-05
0.0064524096 0.0039451136 3.3355809e-05
0.0065563493 0.0039561777 3.2998822e-05
0.0066587431 0.0039446265 4.0720704e-05
0.0067592687 0.0039504091 3.9669179e-05
0.0068409625 0.0039596553 3.5810532e-05
0.0069409511 0.0039464762 3.3854794e-05
0.007041465 0.0039605564 3.5682053e-05
0.0071516768 0.0039575011 3.4289416e-05
0.0072523877 0.0039476729 3.7011912e-05
0.0073647168 0.0039489437 3.9242197e-05
0.0074542142 0.0039503844 5.5989618e-05
-2.7631035e-05 0.0040378096 4.8235077e-05
4.8399441e-05 0.0040638531 4.4093791e-05
0.00015381663 0.0040543252 2.960088e-05
0.00025479429 0.0040453225 3.7141592e-05
0.00035818061 0.0040406222 3.993975e-05
0.00043720999 0.0040427707 2.6243195e-05
0.00054838503 0.0040371264 4.1713152e-05
0.00064825988 0.0040557645 2.8082197e-05
0.00075892621 0.00403501 5.1999505e-05
0.00086841587 0.0040519903 4.0407471e-05
0.00095092453 0.0040408755 4.08876e-05
0.0010657141 0.0040521994 3.2002634e-05
0.0011488282 0.0040414934 4.9775921e-05
0.0012312528 0.0040421807 3.0655199e-05
0.0013597963 0.0040339059 3.5514266e-05
0.0014314449 0.0040438343 3.7534926e-05
0.0015501662 0.0040339311 3.9249524e-05
0.0016699994 0.0040401453 3.7091966e-05
0.0017484849 0.0040440257 3.6024961e-05
0.0018596351 0.0040408997 5.2215299e-05
0.0019215632 0.0040466539 3.7397083e-05
0.0020503707 0.0040405239 2.7125159e-05
0.0021459172 0.0040221941 4.8297396e-05
0.0022437095 0.0040262011 4.4213506e-05
0.0023392434 0.0040435684 5.8145983e-05
0.0024169311 0.0040615662 3.8234681e-05
0.0050560203 0.0040666019 6.5804721e-05
0.0051547876 0.004044197 5.6159923e-05
0.005241883 0.0040476928 3.902051e-05
0.005342721 0.0040436382 3.3462642e-05
0.0054528466 0.0040466147 3.9044626e-05
0.0055424953 0.0040497943 3.3945144e-05
0.0056438432 0.0040350375 3.7114496e-05
0.0057614129 0.0040406445 3.7227423e-05
0.0058534266 0.0040424787 3.8696391e-05
0.0059501082 0.0040439558 4.4330754e-05
0.0060449322 0.0040485277 3.0554176e-05
0.006143345 0.0040412107 3.0373531e-05
0.0062354407 0.004039844 3.9467734e-05
0.0063501126 0.0040478096 4.0656982e-05
0.0064521176 0.0040462934 3.4335611e-05
0.0065651461 0.0040373504 3.5120727e-05
0.0066385414 0.0040466818 4.6006382e-05
0.0067527541 0.0040482488 2.9455026e-05
0.006860612 0.0040380191 3.9321782e-05
0.0069385716 0.0040479847 3.8247952e-05
0.0070449468 0.0040571182 3.2669781e-05
0.0071498225 0.0040543331 3.7137179e-05
0.0072467853 0.0040441789 3.2338128e-05
0.0073631816 0.0040579611 4.3244556e-05
0.0074424581 0.0040512541 5.2942378e-05
0.0075005153 0.004000375 7.6069948e-05
-2.7749758e-05 0.0041424958 4.6751695e-05
3.2697393e-05 0.004155973 4.6881545e-05
0.00015260112 0.0041532391 3.6102399e-05
0.00026156404 0.0041621048 4.0456791e-05
0.00036696147 0.0041513476 4.266989e-05
0.00043716258 0.004173391 3.3404089e-05
0.00055261055 0.004158217 3.2792985e-05
0.00066208153 0.0041447147 2.9337776e-05
0.000758084 0.004151233 4.0631494e-05
0.00086112937 0.0041400515 3.5587185e-05
0.000957112 0.0041561723 4.1674495e-05
0.0010587422 0.0041493811 2.9085686e-05
0.0011410036 0.0041491166 4.5237328e-05
0.0012398732 0.0041568587 3.4766541e-05
0.0013514935 0.0041578156 2.8511706e-05
0.0014375738 0.0041332901 4.2255833e-05
0.0015552291 0.0041376408 3.6398913e-05
0.001665144 0.0041280878 2.8240505e-05
0.0017683203 0.0041328641 4.1409865e-05
0.0018542637 0.0041434686 3.2905838e-05
0.0019428662 0.0041463738 3.5333058e-05
0.0020599437 0.0041393908 3.7751135e-05
0.0021491852 0.0041533848 4.280869e-05
0.0022384452 0.0041553541 4.1844974e-05
0.002347728 0.0041372627 4.0886574e-05
0.0024265798 0.0041354485 5.868595e-05
0.0049833343 0.0041925511 7.0168157e-05
0.0050666365 0.0041541518 4.2215041e-05
0.0051518995 0.0041428576 4.5528985e-05
0.0052504945 0.0041540647 4.0451883e-05
0.0053438595 0.0041652182 3.1243966e-05
0.005461833 0.0041600741 3.9882627e-05
0.0055513885 0.0041702138 3.1839652e-05
0.0056456164 0.0041492553 3.3669188e-05
0.0057605891 0.0041433861 4.0919811e-05
0.0058560334 0.0041545178 3.3915054e-05
0.005956091 0.0041512446 3.951562e-05
0.006052061 0.0041512409 3.4770226e-05
0.0061436268 0.0041560805 3.678563e-05
0.0062422864 0.0041550742 3.2516655e-05
0.0063436632 0.0041570445 3.3637112e-05
0.0064518698 0.0041679111 3.389419e-05
0.006555235 0.004146026 3.3861903e-05
0.0066448664 0.0041379114 3.7098813e-05
0.0067553306 0.0041449233 3.7889673e-05
0.0068545206 0.0041397843 3.2518634e-05
0.0069504627 0.004142792 3.3521013e-05
0.0070421482 0.0041580601 2.9863926e-05
0.0071488749 0.0041606887 3.8811038e-05
0.0072479234 0.0041486933 3.7885784e-05
0.0073584593 0.0041602436 5.0434377e-05
0.0074310778 0.0041546677 4.7824531e-05
-1.9569721e-05 0.0042320704 3.7019046e-05
4.6106379e-05 0.0042465143 4.3445169e-05
0.00014386213 0.0042510852 3.2825552e-05
0.00025290411 0.0042423592 3.9809671e-05
0.00036006048 0.0042516543 5.1257219e-05
0.00043410488 0.0042564552 3.3489716e-05
0.00055217836 0.0042607691 4.0784056e-05
0.00066937081 0.0042585884 4.1433072e-05
0.00075510517 0.0042689876 3.4361943e-05
0.00085524481 0.0042397813 3.6618272e-05
0.00095442851 0.0042487695 4.3860262e-05
0.0010550342 0.0042495038 3.7567217e-05
0.0011417996 0.004245583 4.6841913e-05
0.0012342965 0.00424904 4.0659619e-05
0.0013513946 0.0042571696 3.6360696e-05
0.0014415673 0.0042461175 4.1215448e-05
0.0015594747 0.0042602425 3.4603574e-05
0.0016631599 0.0042430363 3.4717104e-05
0.0017408045 0.004240633 2.7614264e-05
0.0018497679 0.0042573288 5.1786199e-05
0.001928719 0.0042353398 4.4488123e-05
0.0020534676 0.0042526154 3.3290315e-05
0.0021565885 0.0042619701 3.6052072e-05
0.0022482018 0.0042679128 4.2181186e-05
0.002348756 0.0042559658 4.5065604e-05
0.0024462582 0.0042569125 3.7942566e-05
0.0049655344 0.004236809 2.4510611e-05
0.0050618784 0.0042446232 4.3541157e-05
0.0051438627 0.004247562 4.3651227e-05
0.005244825 0.0042433799 3.4619123e-05
0.0053376881 0.0042591095 3.7898812e-05
0.0054617366 0.0042482084 4.0245512e-05
0.0055268286 0.0042536082 3.4329245e-05
0.0056413868 0.0042542154 3.0428724e-05
0.0057466738 0.0042503197 3.520539e-05
0.0058494867 0.0042527518 4.0428091e-05
0.0059539555 0.0042562904 3.6651098e-05
0.0060563572 0.0042622942 3.3549579e-05
0.0061411336 0.0042552883 3.31181e-05
0.0062382841 0.0042503583 3.5872436e-05
0.0063506733 0.0042606369 3.6981466e-05
0.0064496403 0.0042697857 3.6702131e-05
0.0065543447 0.0042417445 3.9199087e-05
0.0066447919 0.0042547924 3.5332352e-05
0.0067524626 0.004256221 3.5545996e-05
0.0068550855 0.0042530876 3.4700275e-05
0.0069463472 0.0042531509 3.6101785e-05
0.0070440751 0.0042602699 3.4957935e-05
0.0071496046 0.0042464449 3.5508518e-05
0.0072523919 0.0042407098 3.1504544e-05
0.007358822 0.0042498382 4.6995749e-05
0.0074263089 0.0042520799 4.8660786e-05
-1.3172872e-05 0.0043126522 4.5995381e-05
4.8221034e-05 0.0043441704 5.2103893e-05
0.00014566329 0.0043457937 2.2703092e-05
0.00025956272 0.0043487395 3.758413e-05
0.00034767768 0.0043469137 2.8949749e-05
0.00045159945 0.004347119 4.715085e-05
0.00055123848 0.0043334062 3.4418485e-05
0.0006457594 0.0043669222 1.9261683e-05
0.00075274898 0.0043460391 3.8052516e-05
0.00084090623 0.0043509086 3.5209909e-05
0.00094774872 0.0043452638 4.6035806e-05
0.0010494029 0.0043410351 2.8097016e-05
0.0011465754 0.0043453639 3.8171274e-05
0.0012441823 0.0043329257 4.3427106e-05
0.001355743 0.0043409113 3.3928169e-05
0.0014485298 0.0043682959 3.9953051e-05
0.0015567297 0.0043586581 4.268406e-05
0.0016694247 0.0043671844 3.2086831e-05
0.0017537364 0.0043623042 2.9642399e-05
0.0018515454 0.004359609 4.0368959e-05
0.0019311287 0.0043610609 3.9281014e-05
0.002058319 0.0043541258 3.2114702e-05
0.0021632998 0.0043436862 3.3538214e-05
0.0022394161 0.0043539391 4.591636e-05
0.0023497597 0.0043575331 3.417641e-05
0.0024553642 0.0043509756 5.6269877e-05
0.0025178599 0.0043734983 3.3901852e-05
0.0049641836 0.0043579368 5.6906905e-05
0.0050671771 0.0043451921 4.1467352e-05
0.0051642326 0.0043458329 3.1464868e-05
0.0052276519 0.0043390323 4.0566309e-05
0.0053432593 0.0043428419 3.3670389e-05
0.0054505225 0.0043381508 3.5172841e-05
0.0055648452 0.0043381592 3.6435598e-05
0.0056499671 0.0043697511 3.7010203e-05
0.0057479399 0.004354578 3.9755549e-05
0.0058472413 0.0043538492 3.6283302e-05
0.0059557026 0.0043548774 3.9825391e-05
0.0060564289 0.0043713055 3.8054812e-05
0.0061444263 0.004352306 3.0808249e-05
0.0062514073 0.0043510972 3.3598088e-05
0.0063515031 0.0043574264 3.5621975e-05
0.0064571556 0.004348238 3.1333682e-05
0.0065538469 0.0043489416 3.9237726e-05
0.0066487198 0.0043622418 3.1898926e-05
0.0067528076 0.004354293 3.6796311e-05
0.0068586115 0.0043573002 2.9140037e-05
0.0069629308 0.0043554208 3.0431585e-05
0.0070444117 0.0043572942 3.3525932e-05
0.0071484949 0.0043428103 3.671462e-05
0.0072474671 0.004353323 3.5586349e-05
0.0073510283 0.0043464145 4.1587129e-05
0.0074311285 0.004345044 3.9308885e-05
-1.0161466e-05 0.0044152075 6.9525369e-05
5.7996891e-05 0.0044434173 4.4492524e-05
0.00013391714 0.0044588898 4.6059406e-05
0.00024174429 0.0044631469 3.8437094e-05
0.00034419177 0.0044472064 3.3382399e-05
0.00045115675 0.0044455761 4.0908802e-05
0.00055694708 0.0044523031 4.7193214e-05
0.00065578712 0.0044440688 4.0360057e-05
0.00074194145 0.0044541219 4.4117831e-05
0.00084739656 0.0044366545 4.1534426e-05
0.00094402448 0.0044546216 4.3033895e-05
0.0010415316 0.0044491072 3.8512306e-05
0.0011435387 0.0044449926 3.8322418e-05
0.0012504143 0.0044504418 4.2335072e-05
0.001356676 0.0044556609 4.3283348e-05
0.001442929 0.0044558379 4.3932916e-05
0.0015453632 0.0044484739 4.0553085e-05
0.0016430912 0.0044531804 4.3179316e-05
0.0017518268 0.0044625625 3.9468188e-05
0.0018501795 0.0044639609 4.0358926e-05
0.0019459389 0.0044660633 4.213825e-05
0.0020624311 0.0044542672 3.6983838e-05
0.0021484739 0.0044527431 4.4734745e-05
0.0022363842 0.0044397162 4.4092736e-05
0.0023544156 0.0044419644 3.83363e-05
0.0024490079 0.0044400357 4.7248908e-05
0.0025388605 0.0044648689 5.4359411e-05
0.0026062294 0.0044965246 7.4236996e-05
0.00488227 0.0044700704 4.6957972e-05
0.0049553262 0.0044594849 4.5763769e-05
0.0050567519 0.0044405004 4.3054206e-05
0.005154551 0.0044525261 4.2529446e-05
0.0052377656 0.0044482253 3.4658922e-05
0.0053382302 0.004447272 3.3830511e-05
0.0054547116 0.0044474048 4.2442618e-05
0.0055620819 0.0044455472 3.8246533e-05
0.0056448104 0.0044566584 2.500084e-05
0.0057414928 0.0044599487 4.081853e-05
0.0058462359 0.0044547059 3.5106044e-05
0.00595072 0.004449137 3.8290182e-05
0.0060583246 0.004454053 4.1356721e-05
0.006160982 0.0044531338 4.060975e-05
0.0062558963 0.0044678864 3.4128545e-05
0.006344947 0.004447639 4.1109564e-05
0.0064519523 0.0044491463 3.4790388e-05
0.0065566781 0.0044540875 4.3983331e-05
0.0066370238 0.0044522262 3.3550277e-05
0.0067512006 0.0044538737 3.8793965e-05
0.0068576774 0.0044523953 3.7916961e-05
0.006953381 0.0044429898 3.7893031e-05
0.0070507913 0.0044423472 4.0004594e-05
0.0071384548 0.0044444944 3.8437363e-05
0.007240057 0.0044574025 3.1609237e-05
0.0073506697 0.0044590742 4.8078131e-05
0.0074327355 0.0044457782 4.6115048e-05
7.0719441e-05 0.0045467159 5.603156e-05
0.00013631648 0.0045662252 4.3447573e-05
0.00026247659 0.0045368676 3.3233788e-05
0.00035683234 0.0045493213 3.186251e-05
0.00044592979 0.0045351512 4.3793149e-05
0.0005508851 0.004550627 3.861322e-05
0.00064283924 0.004544198 3.260262e-05
0.00075810688 0.0045565772 4.1239309e-05
0.00084968976 0.004551766 2.4503986e-05
0.00094880484 0.0045534596 4.3454671e-05
0.001055073 0.0045465436 2.959359e-05
0.0011442683 0.0045506661 4.2349322e-05
0.0012341571 0.0045452546 4.3481708e-05
0.0013501118 0.0045473371 2.1069163e-05
0.0014633832 0.0045398846 4.3605163e-05
0.0015638447 0.0045464858 3.5283756e-05
0.0016445027 0.0045514335 3.7496407e-05
0.0017404942 0.0045440849 4.0274161e-05
0.0018577815 0.0045353314 4.5139393e-05
0.0019450155 0.0045344345 3.6590587e-05
0.0020648693 0.0045484453 3.2578726e-05
0.002165827 0.0045450344 4.1542986e-05
0.002243021 0.0045424821 4.154566e-05
0.0023482027 0.0045357929 3.5690897e-05
0.0024438251 0.0045394166 4.9899263e-05
0.0025488152 0.0045524007 4.3845714e-05
0.002621531 0.0045576245 4.5474568e-05
0.0047917981 0.0045849327 6.2047387e-05
0.0048476504 0.0045783976 5.1385054e-05
0.0049528186 0.0045485348 4.5274286e-05
0.0050635887 0.0045503266 3.9667375e-05
0.0051642875 0.0045442628 3.5365229e-05
0.0052301516 0.0045536193 3.9741903e-05
0.005342409 0.0045485324 2.8955685e-05
0.0054482617 0.0045372983 3.704413e-05
0.0055480762 0.0045317365 3.6228837e-05
0.0056550442 0.0045415051 3.4100998e-05
0.0057442961 0.0045537557 3.2712713e-05
0.0058385679 0.0045526279 3.9033286e-05
0.0059466474 0.0045479266 3.5516165e-05
0.0060630315 0.0045401845 3.1624586e-05
0.0061676968 0.0045387433 3.2517997e-05
0.0062446985 0.0045533972 3.7530655e-05
0.0063468367 0.0045381151 3.1695959e-05
0.006448016 0.0045425841 4.1026262e-05
0.0065535391 0.0045510256 3.9574126e-05
0.0066489498 0.0045492961 2.9465811e-05
0.0067557669 0.0045421002 3.7475802e-05
0.0068488293 0.0045537273 3.178282e-05
0.0069539058 0.0045409123 3.6037716e-05
0.0070551117 0.0045339791 3.3905992e-05
0.0071521359 0.0045482428 3.8887309e-05
0.0072493902 0.0045422497 3.1376305e-05
0.007346529 0.0045563416 4.8959973e-05
0.0074262917 0.004555034 4.6045967e-05
7.5887474e-05 0.0046481211 4.7767699e-05
0.00013665009 0.0046644737 5.3840675e-05
0.00024964329 0.0046513574 3.4936711e-05
0.00033666045 0.0046569421 3.849019e-05
0.00046044312 0.0046562492 5.1010913e-05
0.00054653041 0.0046324991 3.7069763e-05
0.00064719451 0.0046348944 1.9487121e-05
0.00075957569 0.0046545011 5.2715459e-05
0.00084595708 0.0046417234 3.3295848e-05
0.00095945428 0.0046543409 4.5213346e-05
0.0010554934 0.0046550757 3.9059152e-05
0.0011433589 0.0046402696 2.4282337e-05
0.0012423146 0.0046498231 3.8631508e-05
0.0013568888 0.0046471441 4.1263345e-05
0.0014494397 0.0046437783 3.5744117e-05
0.0015498636 0.004635965 2.5286343e-05
0.0016694266 0.0046349205 4.3013628e-05
0.0017386447 0.0046313917 2.9396066e-05
0.0018535795 0.0046457676 3.6658756e-05
0.0019540016 0.0046473048 3.9977549e-05
0.0020679322 0.0046458729 4.2637799e-05
0.0021580798 0.0046598776 2.669135e-05
0.0022501273 0.0046507311 4.3005941e-05
0.0023400995 0.0046438747 2.9975672e-05
0.0024507546 0.0046444437 4.2804601e-05
0.0025460508 0.0046356753 4.5778885e-05
0.0026489396 0.0046634432 4.3823537e-05
0.0027067994 0.0046940404 2.5957268e-05
0.004781208 0.0046598427 4.3887921e-05
0.0048551545 0.0046693999 4.2093092e-05
0.0049420986 0.0046528503 3.0441355e-05
0.0050612073 0.0046556946 4.399005e-05
0.0051662638 0.0046528489 3.2575288e-05
0.0052420297 0.0046576746 3.7173286e-05
0.0053439802 0.0046523861 3.622294e-05
0.0054555307 0.0046564573 3.7518959e-05
0.0055602062 0.0046426556 3.6445832e-05
0.005660987 0.0046395785 3.4334586e-05
0.0057412828 0.0046505565 4.2770986e-05
0.0058381679 0.004652753 3.3936354e-05
0.0059530805 0.0046456656 3.2813365e-05
0.0060646045 0.0046395739 4.2756546e-05
0.0061586322 0.0046438258 3.1018615e-05
0.0062491382 0.0046403972 3.106469e-05
0.0063332994 0.0046434347 3.6564306e-05
0.0064494815 0.004655052 3.4682587e-05
0.0065513737 0.0046464456 3.7189846e-05
0.006663274 0.0046474538 3.1707888e-05
0.0067594587 0.0046381261 3.3562243e-05
0.0068639885 0.0046547162 3.542356e-05
0.0069503686 0.0046492792 3.1354e-05
0.0070473747 0.0046509611 3.275563e-05
0.0071525564 0.0046607098 3.6368492e-05
0.0072555542 0.0046475856 3.7117265e-05
0.0073468937 0.0046633366 4.7929287e-05
0.0074139191 0.0046207267 4.3679953e-05
7.6613702e-05 0.0047423923 6.3440588e-05
0.00014068089 0.0047618076 3.6474201e-05
0.00024454572 0.0047523514 3.0264086e-05
0.00035678639 0.0047464925 3.5294048e-05
0.00046231176 0.0047334698 2.1468071e-05
0.00055249978 0.0047511272 4.0364397e-05
0.00064541731 0.0047308248 3.7652357e-05
0.00075397111 0.0047360831 3.4634424e-05
0.0008491663 0.0047339764 3.3213881e-05
0.0009564588 0.0047396901 5.2361171e-05
0.0010277232 0.0047427742 3.8358128e-05
0.0011469478 0.0047352682 3.6824713e-05
0.0012534899 0.0047464147 5.1309049e-05
0.0013482898 0.0047479859 3.1389747e-05
0.0014520666 0.0047657192 4.1869604e-05
0.0015504682 0.0047399038 3.9189392e-05
0.0016478726 0.004741007 3.9011349e-05
0.0017447289 0.0047492115 3.7100152e-05
0.0018485055 0.0047465903 3.9469505e-05
0.0019450331 0.0047495356 3.5765526e-05
0.0020485537 0.0047461833 2.918049e-05
0.00213977 0.0047594295 4.2189724e-05
0.0022254616 0.0047439458 5.0818318e-05
0.0023403803 0.0047469973 2.8527033e-05
0.0024549931 0.0047366554 3.7476151e-05
0.002552706 0.00474199 3.4189659e-05
0.0026532523 0.0047453544 4.4697281e-05
0.0027464174 0.0047452385 3.6571964e-05
0.0028154647 0.0047703371 7.150969e-05
0.0046633347 0.0047693118 4.1907755e-05
0.0047518462 0.0047658188 4.6703466e-05
0.0048331819 0.0047465316 4.0061521e-05
0.0049520065 0.0047472087 3.3101856e-05
0.0050637256 0.0047437889 3.3463581e-05
0.0051600356 0.0047418261 4.3799238e-05
0.005227732 0.0047324221 3.6197554e-05
0.0053388588 0.0047478438 3.1860873e-05
0.0054507502 0.0047527556 4.087183e-05
0.0055495608 0.0047507235 4.1534011e-05
0.0056622769 0.0047500534 3.1972948e-05
0.0057514408 0.0047519547 3.9084538e-05
0.0058468035 0.004745136 3.5036828e-05
0.0059495266 0.0047441181 3.4674096e-05
0.0060467701 0.0047507058 4.0829207e-05
0.0061595142 0.0047432072 3.7106962e-05
0.0062550073 0.0047497866 3.4355318e-05
0.0063421126 0.0047279042 3.1198011e-05
0.0064438316 0.0047433064 4.1380667e-05
0.0065504257 0.0047450368 3.6390531e-05
0.0066530034 0.0047369506 3.3819015e-05
0.0067562382 0.004737393 3.6236885e-05
0.0068583759 0.0047349627 4.0529751e-05
0.0069437446 0.0047457074 3.7992435e-05
0.0070513804 0.004750655 3.5289075e-05
0.0071507758 0.004756304 3.7268594e-05
0.0072557423 0.0047562425 3.9477487e-05
0.0073376345 0.0047418503 4.9226986e-05
8.5123247e-05 0.0048262356 7.1776412e-05
0.00015078179 0.0048560817 4.2762509e-05
0.0002444062 0.0048413728 4.3447904e-05
0.00035985507 0.0048436513 3.961298e-05
0.00045149741 0.0048482614 3.8155966e-05
0.00053414825 0.0048431228 4.7020836e-05
0.00065028958 0.0048582712 3.7176502e-05
0.00076149631 0.0048482385 3.7269459e-05
0.00085682952 0.0048515955 3.4265937e-05
0.0009559266 0.004852253 3.462446e-05
0.0010330895 0.0048425687 3.3368186e-05
0.001144238 0.0048510083 4.4449083e-05
0.0012465272 0.0048288358 3.7363618e-05
0.0013364875 0.0048707873 1.9834533e-05
0.0014552698 0.0048535015 3.9422866e-05
0.0015478131 0.0048627383 4.0200026e-05
0.0016396007 0.0048705023 3.9155006e-05
0.0017397086 0.0048602489 3.3832795e-05
0.0018526021 0.0048541543 2.9444234e-05
0.0019573462 0.0048430613 4.4870812e-05
0.0020507453 0.0048519354 3.1506719e-05
0.0021541798 0.0048488271 2.8392165e-05
0.0022399018 0.0048519862 4.7674326e-05
0.0023443215 0.0048522269 4.2018695e-05
0.0024545852 0.0048567839 3.8080554e-05
0.0025452392 0.0048588109 3.813556e-05
0.0026502777 0.0048566381 3.2616103e-05
0.0027319996 0.0048584123 3.9358601e-05
0.0028453453 0.0048435773 4.4078781e-05
0.0029156939 0.0048790858 2.3761357e-05
0.0045739845 0.0048567653 5.7623711e-05
0.0046634581 0.0048411801 5.2544998e-05
0.0047474005 0.0048501017 3.8351569e-05
0.0048516174 0.0048538125 4.2930347e-05
0.0049579875 0.0048494232 3.1868974e-05
0.0050602355 0.0048522213 3.8842194e-05
0.0051673832 0.0048513864 3.7078247e-05
0.0052422513 0.0048347334 3.4493107e-05
0.0053443047 0.0048525864 3.5447414e-05
0.0054442687 0.0048428788 3.4271776e-05
0.005546968 0.004851555 3.6751986e-05
0.0056495615 0.0048512938 3.4177723e-05
0.0057495828 0.0048591038 3.4220669e-05
0.0058394335 0.0048455722 3.6622812e-05
0.0059469165 0.0048625642 3.2443771e-05
0.0060475133 0.0048628729 3.7679092e-05
0.0061522569 0.0048532099 2.7735288e-05
0.0062635676 0.0048533962 4.0480354e-05
0.0063427528 0.0048438837 3.4052995e-05
0.0064295987 0.0048380215 3.4386594e-05
0.0065455688 0.0048475382 3.9588027e-05
0.0066533196 0.0048525594 2.9662491e-05
0.0067586945 0.004850728 3.5113477e-05
0.0068602627 0.0048422455 3.6417459e-05
0.0069527267 0.0048481496 3.5013425e-05
0.0070498586 0.0048476392 3.5042558e-05
0.0071445899 0.0048570763 3.6440837e-05
0.0072539682 0.0048499466 4.8251859e-05
0.0073286956 0.0048510423 4.588654e-05
0.00015827396 0.0049553388 4.2783544e-05
0.00024633817 0.0049593737 4.6451441e-05
0.00034356213 0.0049565812 3.5967703e-05
0.0004501839 0.0049525923 3.9402177e-05
0.0005471707 0.0049576899 3.8674159e-05
0.00065661344 0.0049504926 3.9123435e-05
0.00075837068 0.0049576159 3.20564e-05
0.00085846562 0.0049452209 3.6276848e-05
0.00095613312 0.0049534431 4.1508305e-05
0.0010371794 0.0049580648 3.3329892e-05
0.0011339247 0.0049498654 2.6629265e-05
0.0012512645 0.004954312 4.0843759e-05
0.0013534419 0.0049459767 2.8405526e-05
0.0014469126 0.0049474733 3.7187816e-05
0.0015461718 0.0049583227 4.8158108e-05
0.001649153 0.0049452963 3.111898e-05
0.0017501713 0.0049348283 3.7371938e-05
0.0018522366 0.004954116 4.5214776e-05
0.001938724 0.0049541658 3.7698283e-05
0.0020555521 0.0049498617 3.8790356e-05
0.0021531307 0.0049510812 4.0253664e-05
0.0022553583 0.0049460633 4.3071464e-05
0.0023351887 0.0049526826 2.4956265e-05
0.0024393799 0.004960089 4.0186238e-05
0.0025517493 0.0049462793 3.8405768e-05
0.0026564419 0.0049668616 3.133079e-05
0.0027428751 0.0049524573 4.3784872e-05
0.0028587787 0.0049476526 4.5362547e-05
0.002946863 0.0049530347 4.1522151e-05
0.0030466027 0.0049669258 4.540004e-05
0.0043666488 0.0049814507 5.6780071e-05
0.0044635572 0.0049617938 6.9467977e-05
0.0045524281 0.004952861 5.6185698e-05
0.0046464605 0.0049396562 3.6641737e-05
0.0047534434 0.0049557686 3.5842033e-05
0.0048506106 0.0049572014 3.7175098e-05
0.0049364641 0.0049241274 3.7477861e-05
0.0050575817 0.004956231 3.8160313e-05
0.0051672556 0.0049602343 3.694525e-05
0.0052389535 0.0049449936 3.6363886e-05
0.005344654 0.0049486058 3.5189834e-05
0.0054457802 0.0049487427 3.9504423e-05
0.0055510569 0.0049508801 4.0314237e-05
0.0056488682 0.0049478365 3.5881199e-05
0.005742792 0.0049545639 3.641802e-05
0.0058460021 0.0049553416 3.9352351e-05
0.0059450497 0.004943605 3.2969765e-05
0.0060433517 0.0049534873 4.2302363e-05
0.0061541237 0.0049560606 3.6352601e-05
0.0062618242 0.0049596131 3.3025051e-05
0.006356372 0.0049496265 3.3047178e-05
0.0064467299 0.0049512587 3.7390299e-05
0.0065430403 0.0049481317 3.8280763e-05
0.0066506132 0.0049524037 3.1757234e-05
0.0067556114 0.0049589137 3.4941269e-05
0.0068635661 0.0049470412 3.9314229e-05
0.0069495691 0.004942928 3.4734017e-05
0.00704853 0.0049472665 3.4364584e-05
0.0071533984 0.0049550747 3.7208243e-05
0.0072423848 0.004951234 4.8532147e-05
0.0073131919 0.0049305134 4.7771355e-05
0.00016867058 0.0050346139 5.658279e-05
0.0002416666 0.0050519747 5.1113606e-05
0.00035042674 0.0050782389 3.7597005e-05
0.00044905461 0.0050573545 2.4740266e-05
0.00056094961 0.0050451448 4.8739232e-05
0.00066955126 0.0050499137 2.5672802e-05
0.00073841878 0.0050388109 4.4792971e-05
0.00084453565 0.0050575356 4.8203779e-05
0.00094491959 0.0050603366 3.0491745e-05
0.0010463672 0.0050695976 4.1609022e-05
0.0011621069 0.0050504501 4.2589021e-05
0.0012544411 0.0050535882 3.8120899e-05
0.0013585517 0.0050514038 2.47063e-05
0.0014557162 0.0050537121 4.4315271e-05
0.0015634598 0.0050549703 4.2285476e-05
0.0016507357 0.0050510904 2.5959427e-05
0.0017476933 0.0050431071 4.2894419e-05
0.0018603792 0.0050586867 3.0670642e-05
0.0019492632 0.0050569437 4.9753227e-05
0.0020428617 0.00504477 3.5997269e-05
0.0021449679 0.0050570769 3.4148219e-05
0.0022585269 0.0050478573 4.2104246e-05
0.0023558678 0.0050444771 4.7085709e-05
0.0024459285 0.0050523118 3.6978512e-05
0.0025391248 0.005043433 3.9496819e-05
0.0026450527 0.0050365124 4.265086e-05
0.0027462265 0.0050427858 5.3047363e-05
0.0028660879 0.005048818 4.4362307e-05
0.0029555939 0.0050559794 3.6263853e-05
0.003042758 0.0050471313 5.0532224e-05
0.0031397536 0.0050523244 5.1896681e-05
0.0032388947 0.0050803572 3.7742084e-05
0.0033510085 0.0050964425 6.0017788e-05
0.0041707242 0.0050899908 1.6495604e-05
0.0042584324 0.005081106 5.8843754e-05
0.0043628332 0.0050523952 4.7888174e-05
0.0044419039 0.0050425981 4.3794127e-05
0.0045516775 0.0050530443 4.5559591e-05
0.0046593728 0.0050511477 3.1744483e-05
0.0047506932 0.005035853 3.234818e-05
0.0048441221 0.0050550527 3.2170177e-05
0.004945803 0.0050423048 3.7970793e-05
0.0050556222 0.0050435206 3.8772439e-05
0.0051667914 0.0050522708 4.0359508e-05
0.0052432157 0.0050375429 3.852123e-05
0.0053422996 0.0050674849 3.7927231e-05
0.0054456145 0.0050620516 3.6300346e-05
0.0055490346 0.0050481469 3.5671132e-05
0.0056540039 0.005061666 3.7396454e-05
0.0057555004 0.0050506922 3.6917547e-05
0.0058525293 0.0050462023 3.8290393e-05
0.0059473072 0.0050333915 3.589247e-05
0.006052088 0.005046498 3.6831178e-05
0.0061637862 0.0050613382 4.2533808e-05
0.0062628216 0.0050516385 3.9170674e-05
0.0063673574 0.0050444249 3.8783008e-05
0.0064581814 0.0050680302 3.1890282e-05
0.0065451968 0.0050399471 3.7547266e-05
0.0066479645 0.0050578318 3.4594144e-05
0.0067536831 0.0050569982 3.5032557e-05
0.0068650241 0.0050513418 3.792948e-05
0.0069554797 0.0050505078 3.5619189e-05
0.0070501715 0.0050504385 3.4923167e-05
0.0071575078 0.0050505181 4.2932443e-05
0.0072412947 0.00504365 4.6362486e-05
0.00017972387 0.0051024235 4.1490322e-05
0.0002600514 0.0051445598 4.7658934e-05
0.00033603635 0.0051508034 4.1522591e-05
0.00044920115 0.0051411865 4.3573582e-05
0.00056017324 0.0051511335 4.042987e-05
0.00065914029 0.0051382543 2.7762364e-05
0.00073236384 0.0051473556 4.8219528e-05
0.00082165032 0.0051541771 4.3455995e-05
0.00094199704 0.0051540104 3.5266603e-05
0.0010462241 0.0051553492 4.4310869e-05
0.0011448187 0.0051459437 3.5689853e-05
0.0012395926 0.0051531778 3.8980012e-05
0.0013388464 0.0051497738 3.715777e-05
0.0014596452 0.0051599815 3.7113845e-05
0.0015458507 0.0051503237 3.2756583e-05
0.0016468657 0.0051441812 4.1865733e-05
0.0017475161 0.0051542674 3.3705826e-05
0.0018478644 0.0051424545 3.5513309e-05
0.00195116 0.0051491996 4.5094715e-05
0.0020480913 0.0051375562 2.7938149e-05
0.0021571624 0.0051500704 4.1989482e-05
0.0022552279 0.0051488974 3.3947665e-05
0.0023491338 0.0051403013 4.4076744e-05
0.002452234 0.0051504518 3.8783448e-05
0.0025503449 0.0051471698 3.4353736e-05
0.0026512591 0.0051444094 2.8489305e-05
0.0027451811 0.0051357481 3.669603e-05
0.0028566525 0.0051284512 3.3173103e-05
0.0029503892 0.0051376275 4.4791297e-05
0.0030394823 0.0051475111 4.0104682e-05
0.0031462894 0.005135451 4.0008515e-05
0.0032482855 0.0051459749 3.6840014e-05
0.0033516674 0.0051535331 5.5602151e-05
0.003452427 0.0051645315 4.0144441e-05
0.0035485262 0.0051788143 6.2886174e-05
0.0036476012 0.005180106 6.2589992e-05
0.0037321385 0.0051871794 4.2977877e-05
0.0038408053 0.0051901853 7.0137459e-05
0.0039642798 0.0051736045 6.3621374e-05
0.0040465514 0.0051587503 4.4556789e-05
0.0041473061 0.0051494641 4.5111054e-05
0.0042379154 0.0051415442 4.8417289e-05
0.0043406454 0.0051460392 3.932292e-05
0.0044410559 0.0051513715 3.371845e-05
0.0045544803 0.0051567601 3.8666665e-05
0.0046591917 0.0051325974 4.336884e-05
0.0047582835 0.0051416224 4.1038737e-05
0.0048521743 0.0051483302 4.0477735e-05
0.0049387109 0.0051491419 3.3423661e-05
0.0050488524 0.005150605 3.7378184e-05
0.0051663993 0.0051522236 3.7542093e-05
0.0052475678 0.0051534302 3.8547776e-05
0.0053443075 0.0051534022 3.1990985e-05
0.0054490049 0.005154904 3.2292231e-05
0.0055450313 0.0051476667 3.6579469e-05
0.0056694616 0.0051562269 3.2592739e-05
0.005753146 0.0051423535 4.4499437e-05
0.0058490145 0.0051478613 3.5072204e-05
0.0059500937 0.0051485179 3.5629877e-05
0.0060518915 0.0051550707 3.6838828e-05
0.0061626327 0.005144624 3.0960258e-05
0.0062485524 0.0051490176 4.1912615e-05
0.0063503324 0.0051392359 3.8127742e-05
0.0064455965 0.0051591056 3.6072415e-05
0.0065440172 0.0051461211 3.6362566e-05
0.0066546062 0.0051551247 3.3058441e-05
0.0067544309 0.0051603937 3.857198e-05
0.0068555125 0.0051459675 3.2145683e-05
0.0069511463 0.0051584453 3.7141192e-05
0.0070591718 0.005150022 3.1854492e-05
0.0071448125 0.0051510623 4.3335163e-05
0.0072236322 0.005151819 4.2169791e-05
0.00026901194 0.0052505401 5.1927011e-05
0.00033866469 0.0052543059 4.6297777e-05
0.0004626601 0.0052526169 3.5209545e-05
