# .PCD v0.7 - Point Cloud Data file format
VERSION 0.7
FIELDS x y z
SIZE 4 4 4
TYPE F F F
COUNT 1 1 1
WIDTH 1284
HEIGHT 1
VIEWPOINT 0 0 0 1 0 0 0
POINTS 1284
DATA ascii
-0.023125978 -0.0032871836 0.08138869
-0.022541992 -0.0036559612 0.081379019
-0.021650318 -0.0037492923 0.081488721
0.021871431 -0.003516959 0.08140149
0.022406938 -0.0034812577 0.081350148
0.023259215 -0.0036409362 0.08108446
-0.02314231 -0.0028730945 0.081651449
-0.022484006 -0.0025435174 0.081499442
-0.021759797 -0.0024301792 0.081555851
0.0217862 -0.0026069363 0.08158204
0.022519451 -0.0024802785 0.081562251
0.02303132 -0.0028213502 0.081341319
-0.023160234 -0.0012974251 0.08156649
-0.022602893 -0.0013733828 0.081350565
-0.021589369 -0.0012946399 0.08182127
0.021864578 -0.0015526253 0.081502199
0.022400817 -0.0014131442 0.081540033
0.023215149 -0.0013378259 0.081429116
-0.023172492 -0.00044530877 0.081554644
-0.022381676 -0.00058775785 0.081533007
0.021851813 -0.00051209377 0.081622988
0.022436777 -0.00035009583 0.081555367
0.023161627 -0.00075167953 0.081477664
-0.023092493 0.00057031761 0.081697598
-0.022608863 0.00046664575 0.081550404
-0.021808174 0.00060472212 0.081452578
0.021858905 0.0004383935 0.08160124
0.022437597 0.00061243173 0.08154586
0.023349408 0.00046630399 0.081456318
-0.02310691 0.0014225467 0.081516862
-0.022577336 0.0014361045 0.081485003
-0.021553285 0.0014385994 0.081085451
0.021808496 0.0015421964 0.081514291
0.022539116 0.0015163473 0.081622407
0.023170102 0.0017093776 0.081349671
-0.023132123 0.0024528909 0.081627205
-0.022502389 0.002533651 0.081408083
-0.021736693 0.0026516535 0.081516281
0.021920055 0.002454028 0.081605457
0.022379804 0.0025134627 0.081542544
0.023388645 0.002494714 0.081539243
-0.023109339 0.0034120355 0.081603192
-0.022634244 0.0035404626 0.081482455
-0.021498708 0.0032037783 0.081116483
0.021769101 0.0037143156 0.081563525
0.022345986 0.0036587773 0.081583053
0.023091998 0.0038114837 0.081546038
-0.023155546 0.0046169409 0.081735574
-0.022538047 0.0044033742 0.081413366
-0.021886667 0.0045434623 0.081832372
0.021840557 0.0044711418 0.081538461
0.022409603 0.0045791422 0.081692152
0.023329057 0.0048902002 0.081512064
-0.023097359 0.0056109121 0.081557959
-0.022508396 0.0055046608 0.081438668
-0.021791784 0.0059760744 0.081642956
0.021910163 0.0056573153 0.081511125
0.022371931 0.0056051854 0.081562012
0.023094516 0.005596526 0.081738792
-0.023208557 0.0063598193 0.081360228
-0.022665782 0.0064358306 0.081478365
-0.021816507 0.0061794929 0.081253238
0.021897221 0.006710975 0.081382781
0.022388376 0.0064153038 0.081536859
0.023243625 0.0066030566 0.081641108
-0.023087665 0.0073071928 0.081252933
-0.022568025 0.0075632706 0.081383899
-0.021833228 0.0073136277 0.08166232
0.021828236 0.0072105527 0.081555143
0.022390155 0.0076597738 0.081481844
0.023214391 0.007452108 0.081582576
-0.023249514 0.0084649967 0.081341259
-0.022553669 0.0085251862 0.081213176
-0.021755369 0.0081758127 0.081329979
0.021913549 0.0084518818 0.081486024
0.02232364 0.0084216474 0.081425406
0.02328595 0.0086150728 0.081411503
-0.02313979 0.0095020458 0.081229649
-0.022615571 0.0092936065 0.081427179
-0.021812147 0.0096588191 0.08159782
0.021833032 0.0095971702 0.081623703
0.022387384 0.0094164042 0.081453264
0.023272863 0.0096400715 0.081769451
-0.023172967 0.010694518 0.081457824
-0.022543471 0.010566483 0.081462592
-0.021581488 0.010536523 0.081709765
-0.016427612 0.01070086 0.081694461
-0.01511048 0.01035867 0.081667893
-0.014807852 0.010783808 0.08173503
-0.013632367 0.010272595 0.081619285
-0.012568072 0.010681534 0.081600532
0.021819599 0.010596561 0.081628211
0.022290997 0.010574145 0.081483789
0.023287388 0.010598365 0.081690498
-0.023075005 0.01149668 0.081254393
-0.022600932 0.011383825 0.081362821
-0.021887615 0.011425124 0.081812479
-0.016302424 0.011437241 0.081868917
-0.015143495 0.011216022 0.081961334
-0.014523074 0.011625137 0.081542909
-0.013574082 0.011424825 0.081775337
-0.012332113 0.011535232 0.081827894
-0.011478721 0.011613399 0.081822105
0.021878831 0.011476178 0.0815446
0.022395026 0.011520549 0.081451006
0.023505697 0.011624052 0.081407204
-0.023172645 0.012374786 0.081546225
-0.022570875 0.012383497 0.081268713
-0.021760978 0.01274237 0.081589445
-0.017777786 0.012424713 0.081664018
-0.016259996 0.012685418 0.081901558
-0.015189552 0.012617962 0.081905872
-0.014766682 0.012278518 0.081539311
-0.013749548 0.012471977 0.081703968
-0.01236537 0.012348545 0.081847042
-0.011469143 0.01231002 0.081696652
-0.010773893 0.012639142 0.081619754
0.021844227 0.012415977 0.081583023
0.022272937 0.012571739 0.08145985
0.02314537 0.012566159 0.081154421
-0.023163842 0.013334173 0.081405953
-0.022621518 0.013551647 0.0814505
-0.021837758 0.01368475 0.081631489
-0.01768969 0.013035616 0.081907086
-0.016315922 0.013721555 0.081468247
-0.015260764 0.013573441 0.081470408
-0.014517211 0.013587737 0.081534609
-0.013531879 0.013443455 0.081490122
-0.012336593 0.013593828 0.081571795
-0.011414983 0.013300533 0.081950806
-0.010636323 0.013368725 0.081829816
0.021820297 0.013376765 0.081528686
0.02230653 0.013485362 0.081661262
0.02317616 0.013758405 0.081233636
-0.023113189 0.01434755 0.081672743
-0.022585452 0.01454788 0.081381463
-0.021785453 0.014595379 0.08147034
-0.016376626 0.014362695 0.081719294
-0.015196129 0.014433934 0.081484213
-0.014720094 0.014511497 0.081483245
-0.013707879 0.014413744 0.081419013
-0.012492929 0.014350488 0.081580319
-0.011512822 0.014639176 0.081888437
-0.010668608 0.014641379 0.081786305
0.021860095 0.014819253 0.081496224
0.022456946 0.014496412 0.081574358
0.023332842 0.014544407 0.081374705
-0.023137636 0.015602571 0.081599817
-0.022472728 0.01556219 0.081398264
-0.021903597 0.015896797 0.081488937
-0.017835304 0.015455496 0.081500292
-0.016254824 0.015509732 0.081939235
-0.015131205 0.01537678 0.081925876
-0.01433382 0.015435386 0.081725359
-0.013795353 0.015421674 0.081831098
-0.012695303 0.015444575 0.081844166
-0.011295591 0.01565549 0.081563532
0.021877155 0.015454657 0.081140272
0.022244919 0.015409146 0.08142107
-0.023007041 0.016520925 0.08110182
-0.022467945 0.016392922 0.081435837
-0.021790931 0.016520951 0.081286848
-0.01449252 0.016276877 0.081889726
-0.013518084 0.016594192 0.0819555
-0.012176705 0.016054455 0.081863932
-0.011429794 0.016289961 0.081929341
0.021829795 0.016339337 0.08139848
0.022373607 0.016440341 0.081503935
0.023188656 0.016439198 0.081223354
-0.023162154 0.017544782 0.081540935
-0.022542031 0.017577393 0.081484891
-0.021762352 0.017811757 0.081345096
-0.015133806 0.017731614 0.081782229
-0.013668553 0.017618291 0.081781842
0.021895623 0.017563121 0.081351101
0.022176884 0.017544759 0.081605181
0.023306236 0.017292382 0.081472881
-0.023143902 0.018698782 0.081735149
-0.022585962 0.018610116 0.081427425
-0.02187958 0.018432587 0.081309304
0.021842564 0.018617008 0.081349477
0.022321597 0.018455535 0.081403196
0.023215799 0.018335812 0.081321493
-0.023101578 0.019395066 0.081354231
-0.022542892 0.019431656 0.081483617
-0.021810351 0.019606601 0.081402764
0.021844933 0.019688223 0.081591174
0.022405835 0.019403066 0.081482232
0.023224145 0.019432291 0.081625335
-0.023109982 0.020464139 0.081284992
-0.022471825 0.020495784 0.081523873
-0.021824278 0.020358942 0.081179805
0.021850668 0.020232439 0.081206247
0.022273012 0.020479631 0.081639677
0.02335443 0.020120954 0.081066988
-0.023119848 0.021585753 0.081377082
-0.022613956 0.021523876 0.081558235
-0.021834029 0.021462968 0.081327923
0.021852963 0.021462712 0.081419185
0.022367407 0.021615107 0.081539392
0.02320499 0.021402827 0.081691839
-0.023262938 0.022505775 0.081484161
-0.022473564 0.022529604 0.081487574
-0.021695891 0.022722388 0.08161889
-0.020136967 0.022850096 0.081938133
-0.018690661 0.022850037 0.081938133
-0.017244354 0.022850096 0.081938133
-0.015798047 0.022850096 0.081938133
-0.014351682 0.022850096 0.081938133
-0.012905375 0.022850037 0.081938133
-0.011459068 0.022850096 0.081938133
-0.010012762 0.022850096 0.081938133
-0.0085663954 0.022850096 0.081938133
-0.0071200584 0.02285099 0.081937909
-0.0056737219 0.02285105 0.081937909
-0.0042274748 0.022850037 0.081938133
-0.0027811681 0.022850037 0.081938133
-0.0013348019 0.022850037 0.081938133
0.00011150485 0.022850096 0.081938133
0.0015578115 0.022850037 0.081938133
0.0030041183 0.022850037 0.081938133
0.0044504846 0.022850037 0.081938133
0.0058967914 0.022850096 0.081938133
0.0073430981 0.022850037 0.081938133
0.0087894043 0.022850037 0.081938133
0.010235771 0.022849083 0.081938341
0.011682167 0.022849202 0.081938341
0.013128444 0.022849143 0.081938341
0.01457478 0.022849083 0.081938341
0.016021118 0.022849143 0.081938341
0.017467454 0.022849202 0.081938341
0.018913731 0.022849143 0.081938341
0.020360097 0.022849143 0.081938341
0.021894889 0.022520171 0.081515819
0.022352703 0.022571117 0.081393845
0.023202764 0.022240017 0.081237048
-0.023085564 0.023111096 0.081389487
-0.022503614 0.023225974 0.081605963
-0.021445747 0.023332195 0.081564955
-0.020435417 0.023302918 0.081478655
-0.019394271 0.023273945 0.081595041
-0.01844275 0.02331184 0.081590608
-0.017614912 0.023278728 0.081489675
-0.016507896 0.023279689 0.081623763
-0.015508981 0.023200996 0.08136718
-0.014546135 0.023348518 0.081415989
-0.013628139 0.023216277 0.081505112
-0.012305177 0.02324076 0.081470326
-0.011485861 0.02331298 0.081535377
-0.010449286 0.023302704 0.081463113
-0.0094162012 0.023275603 0.081461087
-0.0084278397 0.023277124 0.081410319
-0.0075737853 0.023280833 0.08148396
-0.006499399 0.023338035 0.081425987
-0.005567898 0.023247134 0.081634976
-0.0045789103 0.02330591 0.081519902
-0.0034348769 0.023264913 0.081458718
-0.0024052996 0.023301931 0.081497289
-0.0015242291 0.023311919 0.081490085
-0.00059590442 0.023265721 0.081330493
0.00054393284 0.023291143 0.081305504
0.0014651661 0.02327762 0.081427053
0.0024290038 0.023316324 0.081517488
0.0034333353 0.0232774 0.081530556
0.0045881281 0.023267938 0.081497051
0.0055043283 0.023272017 0.08156351
0.0064384057 0.023308245 0.081550315
0.0075853067 0.023250746 0.081400424
0.0084305247 0.023307532 0.081457041
0.0094550485 0.02324892 0.081437752
0.010485766 0.023291284 0.081466034
0.011534829 0.023323968 0.081525564
0.012432089 0.023249265 0.081513822
0.013622567 0.023212459 0.081416965
0.014577663 0.023328122 0.081470862
0.015519429 0.023215657 0.081325836
0.016502516 0.023240048 0.081568599
0.017494954 0.023312649 0.081630677
0.01834585 0.02330119 0.081494078
0.019512963 0.023273041 0.081590615
0.020585239 0.023310265 0.081532709
0.021571863 0.023333477 0.081503764
0.022368906 0.023234054 0.081529826
0.023111701 0.023325983 0.08159171
-0.023106985 -0.022050945 0.082299426
-0.022410169 -0.02225101 0.082261659
-0.021445075 -0.022074392 0.082396097
-0.020432815 -0.022045417 0.082509436
-0.019742301 -0.022098988 0.082350314
-0.018543238 -0.022079492 0.082464889
-0.017423555 -0.022034224 0.0820456
-0.01656186 -0.022099754 0.082271077
-0.015447557 -0.022094546 0.08237268
-0.014296511 -0.022033563 0.082149372
-0.013654757 -0.022110311 0.08239083
-0.01260802 -0.022088835 0.082381994
-0.011151436 -0.022105657 0.082256317
-0.010334438 -0.022043342 0.082632251
-0.0094489809 -0.022132596 0.082237005
-0.0082835993 -0.022149019 0.082432449
-0.0075754626 -0.02202823 0.082391106
-0.0066676131 -0.022148795 0.082200572
-0.0056098769 -0.022073733 0.08254794
-0.0043122689 -0.022067919 0.082452752
-0.0032191309 -0.022045022 0.082340449
-0.0024722095 -0.022079516 0.082581803
-0.0013212747 -0.022094529 0.082359985
-0.00058291131 -0.022023154 0.082541719
0.00033610617 -0.022112653 0.082448319
0.0014691032 -0.022088412 0.082231179
0.002594348 -0.02207371 0.082607672
0.0034420949 -0.022045044 0.082340598
0.0045242482 -0.022088643 0.08222194
0.0057301484 -0.022073327 0.082607731
0.0064127389 -0.022045545 0.08214131
0.0075709075 -0.022088999 0.082213476
0.008506611 -0.022148602 0.082432568
0.0095403949 -0.022090966 0.082445748
0.010557646 -0.022042571 0.082632206
0.011374461 -0.022105297 0.082256399
0.012627155 -0.022103414 0.082419388
0.013553443 -0.022042962 0.082594685
0.014529354 -0.022091348 0.082368538
0.015629718 -0.022087116 0.082405359
0.016479144 -0.022045216 0.082597286
0.017338015 -0.022116086 0.082334623
0.01841297 -0.02208636 0.0823185
0.019330906 -0.022091879 0.082538627
0.02053858 -0.02203965 0.082511753
0.021611935 -0.022092542 0.082251489
0.022610465 -0.022020316 0.082772352
-0.023131564 -0.021257892 0.082607828
-0.022587657 -0.021617409 0.082441412
-0.021354057 -0.021770718 0.082423396
-0.020482685 -0.021677298 0.082627617
-0.019413747 -0.02176117 0.082370795
-0.018500213 -0.021750301 0.082459554
-0.017457545 -0.021821795 0.082443982
-0.016439751 -0.021772472 0.082530901
-0.015468306 -0.021770082 0.082683042
-0.014668588 -0.021765905 0.082406543
-0.013425547 -0.02177947 0.082576521
-0.012468759 -0.021736182 0.082529619
-0.011429853 -0.021805204 0.08271461
-0.010553582 -0.021777371 0.082483403
-0.0094992574 -0.02180133 0.082379274
-0.0084625157 -0.021796051 0.082617253
-0.0075354679 -0.021783834 0.082498677
-0.0063581276 -0.021733953 0.082619756
-0.0055206572 -0.021773161 0.082537644
-0.0046515986 -0.021777801 0.082600288
-0.0035346523 -0.021747248 0.082350254
-0.0024466459 -0.021726076 0.082606994
-0.0014031273 -0.021810882 0.082317196
-0.00063717662 -0.021767471 0.082424663
0.0004503915 -0.021811699 0.08255934
0.0013897588 -0.021794938 0.082436666
0.0024837826 -0.021789433 0.082469009
0.0034622729 -0.021811554 0.082533792
0.0046060905 -0.02170888 0.08252272
0.0054860008 -0.021792628 0.082590073
0.0064080805 -0.021715855 0.082581781
0.0076161642 -0.021757549 0.082523189
0.0084224166 -0.021778772 0.082512967
0.0094951577 -0.021798186 0.082434803
0.010364016 -0.021791846 0.082407951
0.011430791 -0.021820825 0.08259999
0.012638764 -0.021704227 0.082541354
0.013626954 -0.021845756 0.082574561
0.014779873 -0.021765132 0.082506485
0.015492011 -0.021755453 0.082569584
0.016471265 -0.021766145 0.082536206
0.017388236 -0.021761948 0.08254841
0.018348873 -0.021801943 0.08232823
0.019388622 -0.021761665 0.082410395
0.020310214 -0.021754961 0.082519248
0.021476801 -0.02177958 0.082462914
0.022444483 -0.021464221 0.082503937
0.023221675 -0.021255538 0.082592949
-0.02313745 -0.020321554 0.082181856
-0.022644447 -0.020368477 0.082639851
-0.021835048 -0.020907447 0.082231052
-0.017740224 -0.020955166 0.08282423
-0.014468917 -0.020665023 0.082849063
-0.008737931 -0.020966873 0.082793795
-0.0047047641 -0.020977046 0.082891509
-0.0016534525 -0.020834474 0.082982682
0.00040691139 -0.020879705 0.082864702
0.0021683373 -0.020976262 0.08295165
0.014674857 -0.020827916 0.082913868
0.021729304 -0.020823957 0.082639165
0.022478819 -0.020474931 0.082602277
0.023193663 -0.020606827 0.082355499
-0.023130989 -0.019615868 0.082350336
-0.022718055 -0.019367637 0.082644038
-0.021646934 -0.019321123 0.0825378
0.021937193 -0.019301519 0.082428686
0.02247023 -0.019510671 0.082638741
0.023200512 -0.01946486 0.082479537
-0.023085618 -0.01836944 0.082451425
-0.022615889 -0.018619478 0.082577318
-0.021742444 -0.01848753 0.082932264
-0.010033705 -0.018049538 0.082823113
-0.0093996087 -0.018156409 0.082585238
-0.0070909122 -0.018162204 0.082830466
-0.0065453225 -0.018067539 0.082958251
-0.0048291227 -0.018105159 0.0823033
-0.0011750431 -0.018130807 0.082574561
0.00034900886 -0.018021468 0.082617044
0.0030648082 -0.018048503 0.082915574
0.021880426 -0.018153068 0.082693115
0.022368832 -0.018643618 0.082742125
0.023050116 -0.0188316 0.082221583
-0.023201978 -0.01726608 0.082349584
-0.022644063 -0.017484276 0.082696132
-0.021788793 -0.017482607 0.082359314
-0.0099743064 -0.01783403 0.08263275
-0.0084749497 -0.017834961 0.082688883
-0.0073590837 -0.017383996 0.082710378
-0.0061522624 -0.017545255 0.082775459
-0.0052974364 -0.017445248 0.082557067
-0.0046075336 -0.017418643 0.082846753
-0.0033418357 -0.017651547 0.082816012
-0.0024376996 -0.017696856 0.082584783
-0.0015351671 -0.017337311 0.082628891
-0.00051957258 -0.01746889 0.082717761
0.00053017802 -0.017861908 0.082592078
0.0014705857 -0.017254479 0.08282464
0.0024221055 -0.017566361 0.082595751
0.0031957051 -0.017292194 0.08262524
0.0044623585 -0.017627563 0.082607411
0.00511789 -0.01758635 0.082964785
0.0066080238 -0.017339865 0.082708128
0.0075768344 -0.017622178 0.082647033
0.0082814554 -0.017627772 0.082762331
0.0095833987 -0.017507451 0.082769632
0.010284319 -0.017685685 0.082632653
0.011075913 -0.01726364 0.082814544
0.021796465 -0.017137537 0.082307592
0.022437397 -0.017601229 0.082632579
0.023114393 -0.017423995 0.082440369
-0.023088211 -0.01660594 0.082609467
-0.022650054 -0.016498365 0.082553774
-0.021819318 -0.016925901 0.082616776
-0.0096240742 -0.016605664 0.082789585
-0.0085754739 -0.016523508 0.082801469
-0.0075332839 -0.016753295 0.082624607
-0.0067342818 -0.016516935 0.0827801
-0.0055069402 -0.016609501 0.082749918
-0.0044330829 -0.01670295 0.082787968
-0.0035284904 -0.016544715 0.082920574
-0.0026600736 -0.016581519 0.082786508
-0.0012952915 -0.016400266 0.082722701
-0.0005691952 -0.016593674 0.082901679
0.00040598962 -0.016476862 0.082832813
0.0015968636 -0.016442424 0.082753904
0.0024518524 -0.016429119 0.082831599
0.0032656866 -0.016335685 0.082953312
0.0045941132 -0.016446764 0.082839608
0.0057277824 -0.01630356 0.082904749
0.0064571449 -0.01661592 0.082777962
0.0073563769 -0.016324267 0.082836948
0.0085835308 -0.016414985 0.082749754
0.0096756574 -0.016291728 0.0827979
0.010240258 -0.016562434 0.082811765
0.021662086 -0.016375935 0.082909018
0.022295052 -0.016538104 0.082694016
0.023285743 -0.016212676 0.082551487
-0.023153815 -0.015397727 0.082309797
-0.022528794 -0.015490066 0.082628936
-0.021729205 -0.01549572 0.082422838
-0.010039094 -0.015954478 0.082833238
-0.0099973958 -0.015621467 0.082713075
-0.0075668097 -0.015671847 0.082774729
-0.0058230124 -0.015269886 0.082841203
-0.0044888994 -0.015540167 0.082855791
-0.0034025763 -0.015383217 0.082704276
-0.0026108217 -0.01571756 0.0828223
-0.0018091545 -0.015830433 0.082706273
-0.000309619 -0.015581321 0.082814828
0.00031333943 -0.01543073 0.082709789
0.0013397549 -0.015647763 0.082929201
0.0025419137 -0.015305986 0.082813695
0.0031004781 -0.01529791 0.082603171
0.0045155883 -0.015294653 0.082870655
0.005950897 -0.015881969 0.082828574
0.0065159206 -0.015430272 0.082749858
0.0074059125 -0.015436861 0.082824968
0.0090321479 -0.015632749 0.082543731
0.010911581 -0.015485941 0.082700334
0.01115033 -0.015764358 0.082780063
0.021775385 -0.015594365 0.082355931
0.022433884 -0.015487 0.082623713
0.02307013 -0.015340224 0.082249656
-0.023148606 -0.014457011 0.082489289
-0.022528339 -0.01452733 0.082566291
-0.021737725 -0.0146447 0.082434051
-0.0092336303 -0.014336117 0.082744062
-0.008422954 -0.014287706 0.082980707
-0.0072382437 -0.014752649 0.082959175
-0.00634132 -0.01434246 0.082910001
-0.0057204212 -0.014291202 0.082809731
-0.0043295012 -0.014552028 0.082904935
-0.0030900917 -0.014041713 0.08296793
-0.0023693254 -0.014673627 0.082760863
-0.0016435534 -0.014494251 0.082814597
-0.00049025915 -0.014298637 0.082950398
0.00037196014 -0.014090111 0.08296001
0.001700205 -0.014668324 0.082829237
0.0040163286 -0.014452867 0.082911164
0.0056026056 -0.014837849 0.082750797
0.0065709921 -0.014231879 0.082894474
0.007297901 -0.014316185 0.082994781
0.008449276 -0.01446363 0.082822189
0.0096397409 -0.014659029 0.082902841
0.010352748 -0.01498979 0.082920507
0.021957025 -0.014454534 0.082687944
0.022320164 -0.014452883 0.082650237
0.023263933 -0.014553006 0.082387403
-0.023138033 -0.013395284 0.082367413
-0.022591785 -0.013489991 0.082573913
-0.021809062 -0.013696905 0.082534738
-0.0081323283 -0.013989091 0.082950778
-0.0073534269 -0.013362238 0.082901314
-0.004043947 -0.013108371 0.082866408
-0.0034990099 -0.013405728 0.082882874
-0.00060270901 -0.013201322 0.082839757
0.00076524337 -0.013742845 0.082972698
0.0017444892 -0.013256846 0.082895681
0.0021497798 -0.013928521 0.082970232
0.0040042484 -0.013590241 0.082960568
0.0058889599 -0.013575965 0.082918286
0.0076801861 -0.013682486 0.082870968
0.0091542387 -0.013100386 0.082998142
0.010671696 -0.013890245 0.082795084
0.021860858 -0.013482891 0.082668133
0.022410899 -0.013368324 0.082631223
0.023157295 -0.013529563 0.082258046
-0.023095015 -0.012129261 0.082301751
-0.022494644 -0.012441184 0.082543746
-0.021633787 -0.012502425 0.082470365
0.0018262836 -0.012841665 0.082860574
0.021887299 -0.01246286 0.082339495
0.022344247 -0.012503318 0.082540609
0.023213796 -0.012675243 0.082503565
-0.023165192 -0.011736637 0.082479686
-0.022662548 -0.011436601 0.082495071
-0.021764901 -0.011721242 0.082651027
0.021807926 -0.011766369 0.08264704
0.022372471 -0.01152234 0.082552537
0.023311663 -0.011303654 0.08252386
-0.023100389 -0.010561827 0.082484119
-0.02254826 -0.010464662 0.082533032
-0.021724142 -0.010037273 0.08235234
0.021955624 -0.010764571 0.082590804
0.022407025 -0.010469077 0.08249139
0.023103768 -0.010646728 0.08270862
-0.023149271 -0.0094457138 0.082404464
-0.022668157 -0.0095757227 0.082575634
-0.021664921 -0.0098350942 0.082629092
0.021826599 -0.0094740735 0.08254014
0.022494512 -0.0095511852 0.082568884
0.0231888 -0.0093752723 0.082861766
-0.023142334 -0.0083581246 0.082608193
-0.022564776 -0.0084641986 0.08245597
-0.021766029 -0.0081297932 0.082549892
0.021867467 -0.0085473331 0.08274743
0.022398524 -0.0085728401 0.082373984
-0.023127118 -0.0075194053 0.082607828
-0.022648092 -0.007494072 0.082467392
-0.021799374 -0.0072497264 0.08261016
0.021864919 -0.0074281604 0.082719304
0.022494053 -0.007379435 0.082373917
0.023232704 -0.0074162278 0.082660079
-0.023147307 -0.006408371 0.08254987
-0.022625303 -0.0065872069 0.082488962
-0.021658361 -0.0065207891 0.08263582
0.021784648 -0.0066297227 0.08269459
0.022509396 -0.0065647969 0.082463562
-0.023137329 -0.0055526705 0.082595333
-0.022635827 -0.005441091 0.082445331
-0.021839449 -0.0051834495 0.082886063
0.021937875 -0.0057597593 0.082608014
0.022420041 -0.0054866425 0.082409851
0.023309663 -0.0055818269 0.082620442
-0.023066901 -0.0044791829 0.082396254
-0.022659935 -0.0044083488 0.08249864
-0.021723416 -0.004707342 0.082344227
0.021886855 -0.0045632422 0.082591794
0.022545788 -0.0044272849 0.082528792
-0.023181591 -0.0034574736 0.082585111
-0.022577623 -0.003500184 0.082501173
-0.021793026 -0.0035582746 0.082450137
0.021913441 -0.0035165607 0.082307771
0.022522412 -0.0035903896 0.082535386
0.023250025 -0.0035301466 0.08247155
-0.023049068 -0.0025947797 0.082195193
-0.022647735 -0.0026755552 0.082574755
-0.021769326 -0.0026710625 0.082434654
0.021838015 -0.0026666934 0.082421601
0.022502722 -0.0026469401 0.082511887
0.023344271 -0.0029138776 0.08231286
-0.023170337 -0.0016354601 0.082452744
-0.022600848 -0.0015040188 0.082517914
-0.021663224 -0.0014729832 0.082266867
0.021899551 -0.0012291052 0.082385637
0.02243546 -0.0014818328 0.082487844
0.023309041 -0.0015570155 0.082504034
-0.023169626 -0.00037593051 0.082740605
-0.022635128 -0.00042484264 0.082494617
-0.021821938 -0.00063809147 0.082569465
0.021929707 -0.00061020593 0.082219496
0.022543091 -0.0003773307 0.082492545
0.023351952 -0.0005549104 0.08286874
-0.0230904 0.00060557888 0.082588196
-0.022677466 0.00054150587 0.082469121
-0.021726524 0.00056493195 0.082347997
0.021859562 0.00054175383 0.082475521
0.022254869 0.00020347396 0.082555011
0.023143427 0.00049220416 0.082610749
-0.023204321 0.0014177505 0.08241456
-0.022600215 0.0014005231 0.082535192
-0.021961126 0.0012098532 0.082566589
0.021922054 0.0017550038 0.082298033
0.022463672 0.0014274778 0.082605354
-0.023135111 0.0024618993 0.082343869
-0.022600127 0.0025024419 0.082420409
-0.021721868 0.002559914 0.082359053
0.021761557 0.0027112511 0.082713068
0.022369811 0.0025107623 0.082311153
0.023135848 0.0026291285 0.082658388
-0.023145018 0.0034421023 0.082405187
-0.022549167 0.0035640185 0.082583427
-0.021764359 0.0034395133 0.082575947
0.021906044 0.0034350776 0.082270838
0.022455176 0.0033999237 0.082454711
0.02320281 0.0038755888 0.082131781
-0.023194581 0.0045424947 0.082487844
-0.022673523 0.0043930691 0.082477637
-0.021698795 0.0044678492 0.08254192
0.021799961 0.0047027864 0.082539208
0.022500508 0.0043775351 0.082479298
0.023404954 0.0044782697 0.082467407
-0.023134144 0.0054842946 0.082464211
-0.022548994 0.0055941646 0.082609199
-0.0216207 0.0053471834 0.082721859
0.021959368 0.005470735 0.082700729
0.022473631 0.0055486499 0.082516298
0.023450438 0.005374745 0.082049802
-0.023120442 0.0065090279 0.082473755
-0.022680011 0.0066528749 0.082535356
-0.021809937 0.0063986136 0.0823102
0.021801991 0.0065147802 0.082398526
0.022454066 0.0064669414 0.082538217
0.02324458 0.0063770115 0.082440905
-0.023184758 0.0075178584 0.082386449
-0.022555625 0.0075751753 0.082575373
-0.021760568 0.0076249619 0.082263798
0.021886986 0.0075578033 0.082385167
0.022449905 0.0076950667 0.082573451
0.023249552 0.0075435108 0.082346231
-0.023088386 0.0084887892 0.082451165
-0.022585521 0.0084370868 0.082563564
-0.02167671 0.0085485196 0.082376011
0.021865157 0.0086566908 0.082238592
0.022484779 0.0086512519 0.082668081
0.023264477 0.0086204614 0.08239907
-0.023099601 0.0097090853 0.082510099
-0.022589775 0.0095093548 0.082510404
-0.021849796 0.0095562683 0.082506128
-0.015147446 0.0099959159 0.082714595
0.021866631 0.0094749061 0.082396761
0.022384094 0.0093740476 0.082709901
0.023161313 0.0097999657 0.082101122
-0.023128895 0.010503248 0.082576126
-0.022545371 0.010405046 0.082601696
-0.021879056 0.010381902 0.082416818
-0.01663929 0.010890496 0.082569331
-0.015419733 0.010458745 0.082719892
-0.014369938 0.01027714 0.082622468
-0.013432163 0.010351808 0.082469158
-0.012441635 0.010656436 0.08257895
-0.011973467 0.010604387 0.082964666
0.021935983 0.010501956 0.082394235
0.022349974 0.010564844 0.082539633
0.023191787 0.010675212 0.082368813
-0.023102844 0.011408473 0.082585521
-0.022571541 0.011539593 0.082570158
-0.021852128 0.011474904 0.082355902
-0.017401626 0.011397648 0.08258456
-0.016527224 0.011640045 0.082462311
-0.015430404 0.011391544 0.082366683
-0.014407845 0.011475384 0.082336903
-0.013533699 0.011578451 0.082303256
-0.012716134 0.011664319 0.082304262
-0.011556135 0.011491976 0.08238636
0.021872532 0.011279709 0.082478151
0.022437321 0.011615843 0.082494937
0.023161586 0.011570067 0.082337178
-0.023051396 0.012267279 0.082360171
-0.02251886 0.012438187 0.082411118
-0.021440795 0.01267106 0.082393728
-0.018361259 0.012585538 0.082077511
-0.017493242 0.012395066 0.082481258
-0.01651541 0.012514313 0.082384132
-0.015495856 0.012600047 0.082433537
-0.014020067 0.012627847 0.082116097
-0.0136229 0.012480995 0.082450181
-0.012709569 0.012659295 0.08228723
-0.011289234 0.012515401 0.082397714
-0.010716853 0.012358835 0.082420215
0.021886131 0.012379566 0.082441323
0.022413563 0.012460725 0.082583807
0.023194566 0.012538593 0.082585499
-0.023096256 0.013483736 0.082429849
-0.022638319 0.013461274 0.082415946
-0.02179436 0.013429679 0.082508661
-0.018362042 0.013632646 0.082734518
-0.01735042 0.013627072 0.082567886
-0.016614499 0.013512552 0.08250729
-0.015665164 0.013253225 0.08230646
-0.014993673 0.013475747 0.082294248
-0.013092 0.013307652 0.082636073
-0.012721034 0.013483119 0.082344458
-0.011450862 0.013399958 0.082314394
-0.010481615 0.013424527 0.082514219
0.021882342 0.013577408 0.082447737
0.022404632 0.013435477 0.082535237
0.023154046 0.013702625 0.082549661
-0.02305234 0.014818477 0.082329065
-0.022522779 0.014430046 0.082453579
-0.021709966 0.014007023 0.082159385
-0.018265666 0.014678847 0.082743429
-0.017432412 0.014521442 0.082528561
-0.016549783 0.01444286 0.08242517
-0.015719345 0.014656371 0.082539067
-0.014993145 0.014985493 0.082430013
-0.013241017 0.014608563 0.082490943
-0.01264819 0.01456073 0.082455792
-0.011430681 0.014416674 0.08239273
-0.010520281 0.014595207 0.08248163
0.021824004 0.014783487 0.082520142
0.022352619 0.014503408 0.08250919
0.023553193 0.014518322 0.082644135
-0.02329544 0.015523678 0.082373731
-0.022661697 0.015490958 0.082327522
-0.021771336 0.015329476 0.082456321
-0.018136883 0.015400659 0.082600795
-0.017423864 0.01539377 0.082551375
-0.016504033 0.015454325 0.082431272
-0.015411437 0.015411564 0.082395718
-0.014480138 0.015482644 0.082296148
-0.013674972 0.015460147 0.082423985
-0.012691517 0.015609212 0.082352944
-0.011266883 0.015647287 0.082416154
-0.010738671 0.015316884 0.082087554
0.021889469 0.015592765 0.082417786
0.022490665 0.015509778 0.082456708
0.023289332 0.015434918 0.082658328
-0.023159251 0.016275577 0.082470827
-0.022618748 0.01650962 0.082446583
-0.02180111 0.016453497 0.082674906
-0.017283179 0.016477503 0.082596719
-0.016520454 0.016450394 0.082505733
-0.01552609 0.016451526 0.082490765
-0.014384949 0.016437199 0.082501486
-0.013669 0.016454289 0.082478262
-0.012573296 0.016492434 0.082338884
-0.011419914 0.016384538 0.082615227
0.021885047 0.016233698 0.082519352
0.02244826 0.016423922 0.082537755
0.023236666 0.016235825 0.082658164
-0.023112729 0.017499121 0.082210198
-0.02252367 0.017348262 0.08232069
-0.021781152 0.017374448 0.082533412
-0.019462653 0.01799495 0.082894772
-0.018827995 0.017203074 0.082957812
-0.016314384 0.017447194 0.082663864
-0.015657043 0.017419171 0.082698375
-0.014391493 0.017639106 0.082632512
-0.013566733 0.017619627 0.082720339
-0.012643794 0.017312627 0.082601383
-0.010762621 0.017534694 0.082901232
-0.0091593573 0.017629938 0.082930863
-0.0089991204 0.01794707 0.082991458
-0.0036780725 0.017822012 0.082994968
0.0053298315 0.017920107 0.082955807
0.0080237305 0.017773995 0.082983412
0.0090698227 0.017230116 0.082930379
0.017506562 0.017557006 0.082871333
0.020272339 0.017722307 0.082970753
0.02177099 0.017511992 0.082591772
0.022509754 0.017534928 0.082567878
0.023268005 0.017266696 0.082513981
-0.023167003 0.01858362 0.082481846
-0.022563877 0.018497638 0.082364783
-0.021706048 0.018447019 0.08274851
-0.017956592 0.018181698 0.082957625
-0.01416637 0.018796694 0.082850456
-0.013307112 0.018928096 0.082911506
-0.011675091 0.018287968 0.082943574
-0.010118787 0.018479912 0.082905173
-0.0070225517 0.018264532 0.082988277
-0.0069211419 0.018147271 0.082947254
-0.0044487226 0.018882852 0.08299353
0.0023459147 0.018280875 0.082906537
0.0046746568 0.018364493 0.082963571
0.0096188998 0.018859234 0.082875423
0.012165717 0.01872752 0.082951099
0.013136253 0.018637713 0.082917266
0.014611472 0.018670697 0.082824871
0.015294798 0.018971751 0.08291965
0.016682273 0.01806926 0.082923338
0.01790596 0.018269718 0.082864247
0.019140407 0.018742595 0.082901031
0.021862816 0.018410156 0.08263845
0.022461917 0.018364072 0.082487479
0.023362061 0.018228069 0.082902186
-0.023149358 0.019797074 0.082358062
-0.022514218 0.019427685 0.082410596
-0.021749593 0.019559853 0.082653239
-0.019578274 0.019703528 0.082927898
-0.017012075 0.019137956 0.082921438
-0.016441865 0.019370088 0.082918286
-0.014724845 0.019190609 0.082955271
-0.0086452151 0.019789029 0.082907192
0.00073040591 0.019021854 0.082981907
0.010054976 0.019874349 0.082967952
0.011252115 0.019196816 0.082836576
0.013822133 0.019186676 0.08276885
0.014607758 0.019761505 0.082871594
0.015916942 0.019517431 0.082951084
0.018236101 0.019334987 0.082892239
0.019039162 0.019031139 0.082994759
0.021886213 0.019571712 0.082572028
0.022478601 0.019474495 0.082670145
0.023274003 0.019539844 0.082875684
-0.023227053 0.020451663 0.082841806
-0.022501834 0.020459795 0.082656011
-0.021857407 0.020559309 0.082613818
-0.014969656 0.020654414 0.082920477
-0.012139895 0.020588504 0.082910255
-0.011834517 0.020225769 0.082914032
-0.0093621695 0.020125359 0.082900532
-0.0079152351 0.020295795 0.082932554
0.011453332 0.020261597 0.082912311
0.012777075 0.020525567 0.082962148
0.015297243 0.02060551 0.082919493
0.017444443 0.02090469 0.082874522
0.018731259 0.020518862 0.082972318
0.019645607 0.020674191 0.082868315
0.020599525 0.020187713 0.08290343
0.02184535 0.020616543 0.082793817
0.022352029 0.020470116 0.082546011
0.023360198 0.020107314 0.082585737
-0.02313187 0.021390209 0.082580999
-0.022626555 0.021412481 0.082505621
-0.021583447 0.021378996 0.082618594
-0.020079486 0.02191294 0.082938358
-0.018052507 0.021076603 0.082927115
-0.017496051 0.02148173 0.082929112
-0.015978232 0.021394918 0.082964256
-0.014850384 0.021040499 0.082919784
-0.013509163 0.021931106 0.082923479
-0.010373278 0.021514283 0.082916848
0.0097293071 0.021504143 0.082972929
0.010328785 0.021795046 0.082849301
0.011484507 0.021875955 0.082948267
0.012502113 0.021566693 0.08288274
0.013631157 0.02130978 0.082837492
0.015551074 0.021188682 0.082955912
0.016041853 0.021124462 0.082875587
0.017216397 0.021552246 0.082841337
0.018379362 0.021863628 0.082948707
0.020336961 0.021895789 0.082999319
0.021881033 0.021175805 0.082490243
0.022528242 0.021478338 0.082601435
0.023339715 0.021744912 0.082373336
-0.023209227 0.022520334 0.082474396
-0.022506787 0.022585046 0.082690082
-0.021789992 0.022528473 0.082675681
-0.020351721 0.02286939 0.082652643
-0.01961912 0.022723798 0.082928248
-0.017326148 0.022302486 0.082810238
-0.01659246 0.022340419 0.08292982
-0.01241162 0.022928039 0.082730211
-0.011974829 0.022956274 0.082827747
-0.010548945 0.022841783 0.082849607
-0.009577889 0.022588158 0.082870007
-0.0089110294 0.022760501 0.082906358
-0.0076430482 0.022919238 0.082298078
-0.0064681182 0.022920024 0.08296936
-0.0045909076 0.022920409 0.082494669
-0.002712972 0.022974549 0.082021341
-0.0014301545 0.022921352 0.082791477
0.00037626506 0.022921104 0.082214333
0.0016568452 0.022942074 0.082792878
0.0032701166 0.022922438 0.082369849
0.0046220389 0.022924345 0.082432762
0.0064865905 0.02292273 0.08270634
0.0077549443 0.022925552 0.082645103
0.0093892515 0.022482254 0.082808994
0.011025853 0.022668725 0.082923993
0.01243482 0.022166142 0.082966469
0.013966967 0.02282938 0.082855791
0.014703223 0.022955943 0.082690515
0.015244463 0.022539631 0.082939513
0.017469766 0.022543535 0.082903266
0.018376056 0.022861339 0.082677424
0.019479662 0.022912446 0.082811147
0.021768479 0.022426065 0.082692929
0.022449993 0.022494355 0.082626618
-0.023137989 0.023244783 0.082749061
-0.022463942 0.023249524 0.082477652
-0.021605147 0.023253428 0.082417376
-0.020486355 0.023278907 0.082404815
-0.019577369 0.023337508 0.082383305
-0.018509695 0.023308655 0.082502142
-0.01750966 0.02329516 0.082498796
-0.016367862 0.023238152 0.082543269
-0.015548361 0.023327369 0.082450286
-0.014493048 0.023251012 0.082545601
-0.013468656 0.02324279 0.082338527
-0.012394997 0.023286385 0.082474403
-0.011406126 0.023341063 0.082347944
-0.010454663 0.02324372 0.082461581
-0.0094133792 0.023332201 0.0824375
-0.00851944 0.023333294 0.082501434
-0.007441022 0.023242209 0.082505956
-0.0065186159 0.023207955 0.082374707
-0.0054342309 0.023281667 0.082213625
-0.0044743964 0.023305291 0.082382947
-0.0035281868 0.02321741 0.082443215
-0.0025051034 0.023289889 0.082313776
-0.0013509896 0.023285246 0.082600757
-0.00049153261 0.023265826 0.082480215
0.00046655469 0.023250816 0.082512848
0.0014387304 0.023296818 0.082547054
0.0025747824 0.023317011 0.082258649
0.0035448004 0.023207245 0.082452446
0.004344373 0.023303401 0.082605034
0.0054413546 0.023354428 0.082324252
0.0066779004 0.023243759 0.082274832
0.0075294464 0.023265742 0.082493931
0.0085828034 0.023341846 0.082477927
0.0094669266 0.023303572 0.082521237
0.010522881 0.023211217 0.082434855
0.011519059 0.023349522 0.082377329
0.01259997 0.023250554 0.082526863
0.01357449 0.023259135 0.082435355
0.014564744 0.023274725 0.082379758
0.015442118 0.02325917 0.082629174
0.01640239 0.023269184 0.082373753
0.017501106 0.023331931 0.082413703
0.018408647 0.023224907 0.082426339
0.019493723 0.023302274 0.082508422
0.020455208 0.023287285 0.082416095
0.021468027 0.023279237 0.082516588
0.022542875 0.023213984 0.082325101
0.023098446 0.023392931 0.082150057
-0.022500692 -0.022112316 0.083497562
-0.021002516 -0.02225101 0.08366926
-0.020776788 -0.022041652 0.083889991
-0.019720262 -0.022103608 0.083625443
-0.018269252 -0.022143301 0.083769724
-0.0176856 -0.022045679 0.083416469
-0.016677968 -0.022109598 0.083483398
-0.015271038 -0.022143688 0.083657846
-0.014680706 -0.022045329 0.08341302
-0.013778141 -0.022144046 0.083602309
-0.012414102 -0.022110475 0.083685644
-0.011499547 -0.022103013 0.083496131
-0.010254243 -0.022042699 0.08318992
-0.0096706338 -0.022147462 0.083717331
-0.0085596656 -0.022111183 0.083325669
-0.0072252979 -0.022043232 0.083176777
-0.0067390287 -0.022147693 0.083619237
-0.0055189286 -0.02225101 0.08366926
-0.0041124132 -0.022142492 0.083558962
-0.0035192121 -0.022044934 0.083374031
-0.0027036523 -0.02225101 0.08366926
-0.001475523 -0.022148235 0.08375375
-0.00050244085 -0.02204546 0.083179876
0.00035850171 -0.022104815 0.08361163
0.0015375692 -0.022112275 0.083727986
0.0029267217 -0.022250175 0.083669484
0.003488959 -0.02204323 0.083568029
0.0044637234 -0.022113504 0.083591022
0.0057419087 -0.022250056 0.083669484
0.0061811954 -0.022045827 0.083728328
0.0073745362 -0.022114148 0.083455287
0.0086092427 -0.022146631 0.083385691
0.0094058001 -0.022114614 0.083573103
0.010423258 -0.022047168 0.08314614
0.011547251 -0.022146285 0.083483428
0.012292679 -0.022114962 0.083438613
0.013666782 -0.022048473 0.083499178
0.014496127 -0.022135302 0.083580986
0.015302116 -0.022149336 0.083500817
0.016757533 -0.022044886 0.083405487
0.017464491 -0.022149581 0.08340551
0.018410459 -0.022250056 0.083669484
0.019619731 -0.022089787 0.083617568
0.020543808 -0.022045391 0.083872005
0.021583321 -0.022150559 0.083717577
-0.023105381 -0.021409176 0.083507389
-0.022544798 -0.021647248 0.083446756
-0.021578979 -0.021506235 0.083535716
-0.020436458 -0.021555975 0.08345335
-0.019407885 -0.021575181 0.083403565
-0.01848357 -0.021531424 0.083435826
-0.01742484 -0.021581231 0.083530553
-0.016584992 -0.021439139 0.083517775
-0.015562123 -0.021597881 0.083384201
-0.014536296 -0.021538533 0.083376125
-0.013546566 -0.021556854 0.083528265
-0.012500562 -0.021600606 0.083420902
-0.011525426 -0.021470213 0.083518937
-0.010409454 -0.021518718 0.083482072
-0.0095893778 -0.021576295 0.083444424
-0.008649434 -0.021487972 0.083598949
-0.007542375 -0.021546271 0.083489113
-0.0064373636 -0.021544874 0.083442897
-0.0054406845 -0.021660944 0.08351633
-0.0046894136 -0.021543352 0.083416402
-0.0035715322 -0.021619907 0.083493903
-0.0024179646 -0.021588879 0.083455794
-0.0013146785 -0.021621037 0.083445944
-0.00061259966 -0.02151908 0.083629437
0.0002983681 -0.021609899 0.083458468
0.0014063042 -0.021594979 0.083462864
0.0025640512 -0.021561107 0.083509475
0.0036642975 -0.021535387 0.083608814
0.0043620695 -0.021631485 0.083476432
0.0053179748 -0.021572908 0.08353807
0.0064465413 -0.021628054 0.083460383
0.0074808141 -0.021558208 0.083426878
0.0085081887 -0.021611746 0.083486289
0.0095702307 -0.021617381 0.083490536
0.01058295 -0.021540152 0.083534338
0.011499618 -0.021619229 0.083433703
0.012443884 -0.021660494 0.083518483
0.013522971 -0.021495052 0.083545864
0.014513237 -0.021543013 0.083515547
0.015501491 -0.021610947 0.083522439
0.016448673 -0.021529544 0.083472684
0.017449018 -0.021617776 0.083391972
0.0185348 -0.021596037 0.083447494
0.019502426 -0.02166333 0.083433293
0.020520313 -0.021589441 0.083458982
0.021494105 -0.021606363 0.083437689
0.022337124 -0.021444554 0.083495006
0.023120372 -0.02136966 0.083480678
-0.02311888 -0.02042681 0.083724737
-0.022581307 -0.020422364 0.083617501
-0.02157343 -0.020480121 0.083633445
-0.020590056 -0.020404298 0.083640806
-0.019510074 -0.020535275 0.083596133
-0.018549629 -0.020440117 0.083621562
-0.017505214 -0.020540249 0.083459727
-0.016453512 -0.020489775 0.083589278
-0.015613711 -0.020479457 0.083683044
-0.014483836 -0.020445243 0.083727375
-0.013251077 -0.020318041 0.083529621
-0.012474312 -0.020441953 0.083692491
-0.011657935 -0.020395264 0.083615236
-0.010559511 -0.020420527 0.083589286
-0.0094149709 -0.020505715 0.083688438
-0.0085018976 -0.020507142 0.083505116
-0.0075513567 -0.020586623 0.083624132
-0.006629989 -0.020534756 0.083499514
-0.00550836 -0.020617403 0.083636686
-0.0044405642 -0.020383587 0.083779104
-0.0036476275 -0.020471469 0.083547756
-0.0025329383 -0.02042632 0.083699502
-0.0013291042 -0.020566847 0.083651125
-0.00043076984 -0.020355023 0.083719313
0.00034374621 -0.020501724 0.083692215
0.001379873 -0.020447174 0.083675854
0.0026955938 -0.020433504 0.083543181
0.0036596637 -0.020417444 0.083649404
0.0044616894 -0.020623432 0.083516859
0.0054170503 -0.020510711 0.083581939
0.0063552898 -0.020567335 0.083650507
0.0076755579 -0.020351889 0.083741002
0.0085164532 -0.020464223 0.083668195
0.0094277496 -0.020561429 0.083619587
0.010521774 -0.020468246 0.08374168
0.011548774 -0.020409493 0.083679095
0.012388891 -0.020351376 0.083796404
0.01345708 -0.020403607 0.083581775
0.014633645 -0.02041615 0.083541542
0.015441181 -0.020533979 0.083645426
0.01651961 -0.020586964 0.083613724
0.017466793 -0.020543642 0.083638221
0.01864847 -0.02049111 0.083776519
0.019556865 -0.020566739 0.083574213
0.020559283 -0.02055222 0.083790347
0.021569073 -0.020476718 0.083534732
0.022458212 -0.020354442 0.083444342
0.023327 -0.020919207 0.083467104
-0.023121815 -0.019258562 0.083507963
-0.022488575 -0.019437183 0.083614163
-0.0214231 -0.019443553 0.083700649
-0.020713449 -0.019409528 0.083629616
-0.019492755 -0.019478714 0.083673663
-0.018275788 -0.019504664 0.083602123
-0.017391192 -0.019623039 0.083780102
-0.016717767 -0.019533275 0.083690189
-0.015590152 -0.019403977 0.083640851
-0.014502046 -0.019480312 0.083628118
-0.013441121 -0.019447412 0.083708048
-0.012570605 -0.019600013 0.083744928
-0.011591983 -0.019447813 0.083618097
-0.010339756 -0.019389382 0.083723135
-0.0093915323 -0.019337915 0.083760262
-0.0084065665 -0.019390289 0.083622739
-0.0074678636 -0.019298771 0.083585739
-0.0065091387 -0.019512713 0.083705664
-0.0054997918 -0.019526787 0.083636038
-0.0043278355 -0.019343048 0.08350984
-0.0036997017 -0.019443061 0.083548188
-0.002579351 -0.019473173 0.083706945
-0.0013224994 -0.01954305 0.083638445
-0.00034216247 -0.019548615 0.083535969
0.00047227126 -0.019504644 0.083629809
0.0015574532 -0.019529926 0.083592728
0.0025623424 -0.019688342 0.083677992
0.0035184002 -0.01930052 0.083456136
0.004433868 -0.019423194 0.083726719
0.0055066585 -0.019387541 0.0837029
0.0063846302 -0.019432807 0.08369308
0.0075679128 -0.019545879 0.083532088
0.00857116 -0.019455107 0.083530463
0.0094009172 -0.019562941 0.083550923
0.010389846 -0.019509764 0.083673932
0.011383144 -0.019448433 0.083507128
0.012474556 -0.019531375 0.083746359
0.013394805 -0.019655181 0.08369337
0.014608216 -0.019372318 0.083726607
0.015387704 -0.019278074 0.083659403
0.01643108 -0.019629316 0.083713777
0.017341891 -0.019433264 0.083669148
0.018557804 -0.019448532 0.083607666
0.019331539 -0.019615849 0.083603129
0.020356603 -0.019660071 0.08366257
0.021622749 -0.019531045 0.083484896
0.022543021 -0.019353418 0.083633453
0.023227146 -0.019314343 0.083569512
-0.023201603 -0.018351916 0.083770499
-0.022449976 -0.018458977 0.083486117
-0.021469323 -0.018614117 0.083538711
-0.020416299 -0.018486682 0.083758682
-0.019393316 -0.018520327 0.083769917
-0.018438799 -0.018464645 0.083583191
-0.017329685 -0.01860605 0.083758555
-0.016566964 -0.018490357 0.083763324
-0.015406826 -0.018591622 0.083713301
-0.014637049 -0.018514017 0.083691463
-0.013363429 -0.018415086 0.08360561
-0.01242669 -0.018500125 0.083739378
-0.011517222 -0.018768489 0.083612181
-0.010348456 -0.01869731 0.0837522
-0.0092536695 -0.018408373 0.083346151
-0.0085564284 -0.018311569 0.083600283
-0.0073054954 -0.018320702 0.083770178
-0.0065237256 -0.01862712 0.083679572
-0.0055960049 -0.018442754 0.083637603
-0.0043335385 -0.018414173 0.083829306
-0.0036494904 -0.018419866 0.083566122
-0.0024836478 -0.018515933 0.083728202
-0.0013816716 -0.018509716 0.08368513
-0.00053477258 -0.018508602 0.083888747
0.00057027955 -0.018605586 0.083745427
0.0016185296 -0.018452303 0.083672486
0.0024581219 -0.018433116 0.083798647
0.0036783633 -0.01853474 0.083769865
0.0044084364 -0.018356873 0.083756067
0.0056616273 -0.01847885 0.083571233
0.0065118475 -0.018816987 0.083985455
0.0076117157 -0.018610867 0.083805852
0.0087542254 -0.018468816 0.083582565
0.0092590172 -0.018712822 0.083848491
0.01045743 -0.018445335 0.083797306
0.011519514 -0.018520458 0.083753847
0.012813944 -0.018210528 0.083633654
0.013504562 -0.018587261 0.083677098
0.01466596 -0.018750634 0.083575271
0.016498579 -0.018746825 0.083706632
0.017377429 -0.01869189 0.083988905
0.018499488 -0.018366627 0.083754577
0.019599218 -0.018345404 0.083525784
0.020688986 -0.018442562 0.083695196
0.021744521 -0.018698705 0.083520398
0.022536732 -0.018462582 0.083412647
0.023188785 -0.018691855 0.083403401
-0.023132101 -0.017842034 0.083462082
-0.022512723 -0.017512821 0.083569303
-0.021451976 -0.017503262 0.083821855
-0.020647814 -0.017350974 0.083746411
-0.019546283 -0.017690154 0.083764233
-0.018261505 -0.017221551 0.083893657
-0.017149944 -0.017754618 0.083770514
-0.016625222 -0.017325277 0.083760075
-0.015462297 -0.017408231 0.083807103
-0.014561595 -0.017584611 0.083800286
-0.013368343 -0.017393656 0.083763868
-0.012477233 -0.017345281 0.083865859
-0.011715393 -0.017400473 0.083768219
-0.010453593 -0.017592011 0.083558083
-0.0093504172 -0.017493384 0.083353288
-0.0086033698 -0.017600503 0.083356366
-0.0075793727 -0.017649641 0.083404578
-0.0065029575 -0.017768268 0.083379798
-0.0055144955 -0.017773097 0.083359867
-0.0044910135 -0.017628746 0.083347194
-0.0035545477 -0.017691057 0.083358578
-0.0024960476 -0.017587589 0.083308734
-0.0013119194 -0.017717719 0.083289109
-0.00051219948 -0.017418308 0.083453111
0.00032336992 -0.017603187 0.08332511
0.0015201288 -0.017678363 0.083278298
0.0026470919 -0.01770121 0.083356559
0.0036650468 -0.017627163 0.083415695
0.0043621557 -0.017803298 0.083399892
0.0054198969 -0.017793326 0.083272077
0.0065413266 -0.017626043 0.0834077
0.0076161656 -0.017731516 0.083431974
0.0085043106 -0.01753927 0.083324924
0.0094072148 -0.017717673 0.083399311
0.010677029 -0.01754522 0.083580211
0.011147288 -0.017608767 0.083765224
0.012774479 -0.017404325 0.083798714
0.013764198 -0.017642697 0.083777554
0.014482682 -0.017568398 0.08383505
0.015604686 -0.017528117 0.083927132
0.016565159 -0.017421573 0.083778173
0.017494375 -0.017692026 0.08378958
0.018611938 -0.017464671 0.083924279
0.019484168 -0.017463321 0.083871901
0.020388739 -0.017718215 0.083936483
0.021727428 -0.017489191 0.083619826
0.022433531 -0.017616512 0.083536439
0.023340261 -0.017571045 0.083641261
-0.023127366 -0.016520694 0.083619192
-0.022707541 -0.016476605 0.083453454
-0.021650501 -0.016422197 0.083658136
-0.020119319 -0.016355868 0.083888859
-0.019455394 -0.01657139 0.083813459
-0.018551284 -0.016477907 0.08381021
-0.017453121 -0.016880201 0.083793402
-0.016446654 -0.016551679 0.083789587
-0.015370692 -0.016145037 0.083770365
-0.01362422 -0.016562473 0.083857536
-0.012674749 -0.016078621 0.083876714
-0.011676724 -0.016243281 0.083797239
-0.010443142 -0.016356569 0.083557591
-0.0093364837 -0.016394129 0.083447397
-0.0085365446 -0.016438829 0.083533943
-0.0075340816 -0.016533388 0.083429754
-0.006321671 -0.016509105 0.083369285
-0.005427781 -0.016438155 0.083544731
-0.0047767898 -0.016476812 0.083520174
-0.0036443181 -0.016404444 0.083413318
-0.0025215971 -0.01640173 0.083426677
-0.0013654599 -0.016465716 0.083462164
-0.00056022656 -0.016774852 0.083580852
0.00029626413 -0.016494276 0.083422907
0.0014765071 -0.0164453 0.083454482
0.0026555338 -0.016415881 0.083522543
0.0037021609 -0.016520672 0.083510421
0.0043679108 -0.016548509 0.083481394
0.005351983 -0.016526584 0.08347059
0.0065646512 -0.016526712 0.083432324
0.007546817 -0.016568813 0.083474874
0.0084489556 -0.016463675 0.083351724
0.0095018446 -0.01642566 0.083436444
0.010664475 -0.016358612 0.083603479
0.011300105 -0.016320929 0.083577521
0.012740605 -0.016320052 0.08369983
0.013446024 -0.016636454 0.083879195
0.014509148 -0.016684983 0.083838962
0.016359281 -0.01641164 0.083969191
0.017682487 -0.01657092 0.083526574
