# .PCD v0.7 - Point Cloud Data file format
VERSION 0.7
FIELDS x y z
SIZE 4 4 4
TYPE F F F
COUNT 1 1 1
WIDTH 1289
HEIGHT 1
VIEWPOINT 0 0 0 1 0 0 0
POINTS 1289
DATA ascii
0.0050146743 0.049728077 0.029003317
0.0070434613 0.049647149 0.02884575
0.0088920761 0.049624838 0.028947078
0.011040698 0.049741644 0.028956439
0.013092568 0.049741376 0.029072013
0.01495153 0.049725894 0.028978134
0.016931603 0.049737114 0.029044569
0.018974833 0.049722161 0.028966887
0.021191701 0.049458016 0.028953683
0.022572419 0.049095366 0.028943479
-0.022722755 0.050098583 0.029694328
-0.021101516 0.050053645 0.029067835
-0.01858281 0.050076097 0.02917682
-0.01698908 0.050063167 0.028602695
-0.015314728 0.050042339 0.029230531
-0.012772899 0.050058261 0.028905706
-0.010742635 0.05006516 0.029081196
-0.0094784712 0.050044764 0.029181525
-0.0070273448 0.050046816 0.029353231
-0.005004853 0.050037194 0.029375819
-0.0025228655 0.050038248 0.029216103
-0.00037418734 0.05000253 0.029089671
0.0008720344 0.050031956 0.028594309
0.0027444093 0.050038066 0.02904856
0.0052366429 0.05003462 0.029165152
0.0068383575 0.050049681 0.029174209
0.0093130916 0.050053407 0.028899591
0.010814305 0.050054289 0.028948519
0.0127079 0.050066486 0.028893406
0.015512733 0.050048165 0.029211698
0.016739046 0.050054595 0.028468328
0.019014454 0.050060898 0.028979072
0.02145109 0.050064415 0.029316213
0.022474803 0.050040886 0.029031722
0.0066800858 -0.048000574 0.031289712
-0.02261127 -0.046989221 0.030958714
-0.021093694 -0.047266129 0.030990271
-0.019860795 -0.046961125 0.031234797
-0.0084976712 -0.047061462 0.030956402
-0.0070899613 -0.047392484 0.030982403
-0.0056682047 -0.046981625 0.031069409
0.0056478605 -0.046840802 0.031015456
0.0068742987 -0.047410749 0.030920448
0.0085406024 -0.047104284 0.030953888
0.019838979 -0.047003392 0.030605268
0.021185931 -0.047324743 0.030938976
0.022704247 -0.046935853 0.030993866
-0.02269317 -0.045041438 0.030987294
-0.020924224 -0.044927433 0.030993614
-0.019323811 -0.04456152 0.030962579
-0.017101953 -0.044138387 0.031104071
-0.015073431 -0.044152122 0.03100457
-0.012904219 -0.044153169 0.031015707
-0.010953192 -0.044136401 0.031021135
-0.0088980757 -0.044603765 0.030963829
-0.006985297 -0.044736456 0.03099943
-0.0053992486 -0.0447465 0.03097936
-0.0031329491 -0.044146225 0.030917661
-0.0012259606 -0.044134524 0.030923529
0.00088669831 -0.044141773 0.031019872
0.003015996 -0.04415562 0.030842889
0.0051804278 -0.044501744 0.030987948
0.0066256854 -0.045002129 0.030857828
0.0088671437 -0.044704594 0.030872652
0.0110655 -0.044133227 0.031063667
0.013069211 -0.044155467 0.031019218
0.01502455 -0.044135801 0.031004205
0.016779691 -0.044161811 0.031110264
0.01926126 -0.044445891 0.030878693
0.021069158 -0.044992093 0.030891383
0.022703238 -0.045020651 0.031025976
-0.022687145 -0.043030247 0.030945335
-0.021373713 -0.04338558 0.031105228
-0.019100348 -0.043839138 0.031090818
-0.016986547 -0.043840166 0.030986357
-0.015003866 -0.043885399 0.030905167
-0.013050588 -0.043875862 0.031068048
-0.011055433 -0.043863952 0.030905874
-0.0093254885 -0.043845862 0.030966327
-0.0073861629 -0.043907855 0.031147636
-0.0048632487 -0.043816224 0.031085288
-0.0030749468 -0.043864805 0.030982951
-0.0010898488 -0.043841518 0.031015899
0.0010451319 -0.043855932 0.031023288
0.0030129666 -0.043848008 0.030981492
0.0049059112 -0.043822091 0.031062147
0.0071057044 -0.04384809 0.030769549
0.009186157 -0.043834209 0.031156247
0.011047997 -0.043856684 0.030882655
0.013060419 -0.043878563 0.031047935
0.014950837 -0.043872871 0.030931842
0.017060317 -0.043857396 0.030986803
0.019116176 -0.043829776 0.03109348
0.021156207 -0.043343127 0.031011164
0.022745498 -0.043022875 0.030989276
-0.022727285 -0.041038092 0.030904185
-0.021772409 -0.041090634 0.031044059
0.021796906 -0.041078109 0.031097218
0.022734499 -0.040980119 0.030984869
-0.02267337 -0.039026875 0.030979577
-0.021773785 -0.039030977 0.030919587
0.021685461 -0.039270114 0.031200057
0.022694502 -0.039033759 0.030996989
-0.022745164 -0.036960974 0.030884214
-0.021841541 -0.037058786 0.030862905
0.021756303 -0.037399389 0.031341009
0.022708677 -0.037024483 0.030987414
-0.022649918 -0.034996081 0.030895306
-0.021750312 -0.034937765 0.030785006
0.021794047 -0.035166629 0.031040769
0.022733305 -0.034968872 0.031029308
-0.02269176 -0.033048946 0.030922368
-0.021775963 -0.033069286 0.03098698
0.021725109 -0.032924242 0.0309819
0.022682283 -0.03297862 0.030980501
-0.022661608 -0.031036492 0.030920425
-0.021824311 -0.030886684 0.030965304
0.021764021 -0.031223388 0.03105201
0.022690738 -0.031005621 0.030980211
-0.022653829 -0.029036729 0.031063538
-0.021804865 -0.029151812 0.031153988
0.021783836 -0.029173436 0.031125173
0.022678412 -0.028968515 0.03095058
-0.022646472 -0.026974289 0.031039249
-0.021792412 -0.027137203 0.031017132
0.021722691 -0.027090533 0.031294379
0.022656165 -0.026979553 0.030924525
-0.022644188 -0.02496938 0.031002702
-0.021716129 -0.024818247 0.031111117
0.021812573 -0.025054604 0.031179875
0.022729462 -0.024957845 0.030917624
-0.022652648 -0.022922065 0.031033237
-0.021778829 -0.022813831 0.030855233
0.021845948 -0.023123134 0.031063562
0.022689091 -0.022942381 0.030995408
-0.022619432 -0.020934619 0.031021083
-0.021784287 -0.021077668 0.030667728
0.021730686 -0.021019438 0.031059254
0.02269813 -0.021046141 0.031002995
-0.022600064 -0.018967496 0.030999815
-0.021746598 -0.01913959 0.030963292
0.021737665 -0.019064022 0.031191468
0.022684904 -0.018965658 0.031035071
-0.022648834 -0.01688407 0.031035414
-0.021777196 -0.016851503 0.030809054
0.021754507 -0.016820675 0.031178104
0.022688562 -0.016896807 0.031062938
-0.022625575 -0.014960467 0.030974306
-0.021752832 -0.014887843 0.030981058
0.021774916 -0.014811546 0.030801153
0.022722295 -0.014961528 0.031050311
-0.022656357 -0.012971417 0.031067286
-0.021727405 -0.01311281 0.030860307
0.021743184 -0.012908684 0.031014359
0.022703366 -0.01299382 0.031027365
-0.022620883 -0.010905989 0.030964812
-0.021735489 -0.010963779 0.030889396
0.021737637 -0.011044466 0.030998746
0.022686444 -0.010896983 0.031005273
-0.022643497 -0.0089316647 0.031007349
-0.021789031 -0.0088246083 0.030812956
0.021787524 -0.0091144098 0.030978126
0.022716157 -0.0089390045 0.031054063
-0.022640662 -0.0069873109 0.031042431
-0.021752415 -0.0068546981 0.030968225
0.02176624 -0.0071354606 0.031046944
0.022715623 -0.0070601543 0.031002006
-0.022585245 -0.0050458154 0.030866973
-0.021799618 -0.0051985485 0.030730261
0.021762017 -0.005081817 0.030946344
0.022667287 -0.005062398 0.030977946
-0.022622637 -0.0030607141 0.030985642
-0.021794213 -0.0031627167 0.030905042
0.021800674 -0.0033873084 0.03099766
0.022728153 -0.003038706 0.03106394
-0.022647252 -0.00097984646 0.031025337
-0.02181191 -0.0011573858 0.030638039
0.021805678 -0.00098608679 0.030880988
0.022636045 -0.00090793928 0.030994201
-0.022627534 0.0010210543 0.030969642
-0.021820324 0.0010440495 0.030610442
0.021790231 0.0010504839 0.030696386
0.022694888 0.0010620332 0.031013496
-0.022648068 0.0029074955 0.031047091
-0.021843389 0.0032454783 0.030625625
0.021756044 0.0028227118 0.030812073
0.022742035 0.002964766 0.03095668
-0.022630619 0.0050080037 0.031081872
-0.021797759 0.004901133 0.030734234
0.021755636 0.0049575302 0.030967494
0.022680348 0.0049053133 0.03096747
-0.022670088 0.0071228128 0.03106007
-0.021807926 0.0068604294 0.030816106
0.021799501 0.0070747468 0.030992698
0.022700751 0.0069016297 0.031071095
-0.022619873 0.0090097049 0.030995235
-0.021814495 0.0090287505 0.030761316
0.021758763 0.0090645114 0.031163372
0.022684081 0.0090720039 0.030959537
-0.022653164 0.010925348 0.031056104
-0.021829907 0.010885782 0.030840285
0.021769529 0.010969955 0.031119468
0.022639701 0.011017838 0.030975135
-0.022620969 0.012950974 0.031007096
-0.021804715 0.013120083 0.030906416
0.021823788 0.01318016 0.030993612
0.022709247 0.013007341 0.030998807
-0.022620885 0.015062125 0.03097214
-0.021829709 0.015157282 0.030699885
0.021799689 0.015398144 0.030848945
0.022694137 0.015096883 0.031101314
-0.022653598 0.017145814 0.030989422
-0.021841407 0.016877305 0.030651245
0.021843627 0.016923731 0.030851541
0.022690376 0.017041236 0.030979658
-0.022583533 0.018945199 0.030906424
-0.021839157 0.019134805 0.030772971
0.021789527 0.01880897 0.030855671
0.022691861 0.018974081 0.031059587
-0.022659091 0.020909855 0.030951725
-0.021867372 0.0211682 0.030643143
0.021762747 0.020848531 0.030777398
0.022699604 0.021058336 0.031090004
-0.022606216 0.022982694 0.030910721
-0.021843635 0.022841653 0.030825285
0.021812156 0.023075074 0.030922282
0.022609519 0.023035128 0.031069819
-0.022568479 0.025085783 0.030996678
-0.021861529 0.025125353 0.031060062
0.021797476 0.02506412 0.03115491
0.022697499 0.024997286 0.031036472
-0.022608329 0.026916169 0.030860234
-0.021848163 0.027151305 0.031060336
0.02180413 0.026907181 0.031178135
0.022614494 0.026922012 0.030946307
-0.022608802 0.028961955 0.03096134
-0.021830315 0.029046943 0.031037379
0.021811394 0.028983073 0.031220144
0.022683928 0.029026648 0.03097897
-0.022581846 0.031052148 0.030878067
-0.021855926 0.030920081 0.031089803
0.021762984 0.031136923 0.031161346
0.022628793 0.031041188 0.031086462
-0.022572652 0.033044111 0.030957351
-0.021839524 0.032953113 0.031048162
0.021794844 0.032998316 0.031020697
0.022660425 0.032974072 0.030960577
-0.022643715 0.035009932 0.030991476
-0.02185319 0.034978982 0.031003337
0.021815188 0.034935042 0.031019915
0.022623824 0.034920182 0.030915981
-0.022591602 0.037080053 0.030984046
-0.021857526 0.037101433 0.030915333
0.021812141 0.037174311 0.030692792
0.022674361 0.037032571 0.030963017
-0.022661818 0.039146818 0.030965075
-0.021869009 0.039094698 0.031110838
0.021803128 0.039035443 0.030796105
0.022626339 0.039054289 0.031003697
-0.022618903 0.041046593 0.030968642
-0.021867629 0.041021228 0.031040892
0.02184269 0.040863559 0.030947808
0.022661144 0.041115664 0.030965669
-0.02264454 0.043005515 0.030848505
-0.021893827 0.042968988 0.031173116
0.021838468 0.042771291 0.031084133
0.022645254 0.042959899 0.031019172
-0.022628497 0.044955973 0.030869424
-0.021706751 0.04514163 0.030926473
-0.018853178 0.045841902 0.030720979
-0.016903287 0.045887854 0.030503402
-0.015136448 0.045903798 0.030775445
-0.013066108 0.045885194 0.030866884
-0.01084492 0.045900088 0.030798202
-0.0092785126 0.045866352 0.030867593
-0.0076920805 0.04592067 0.030852482
-0.0048384564 0.045903515 0.03066623
-0.0031089385 0.045866635 0.03063108
-0.0011910589 0.045896631 0.030872576
0.00095545367 0.045871474 0.030725578
0.0029776436 0.045872692 0.030779378
0.0050418633 0.045911085 0.030581398
0.0066256071 0.045849167 0.030176844
0.0093589248 0.045913417 0.031056838
0.01087679 0.045893796 0.03078871
0.012992644 0.045877226 0.030822475
0.015160357 0.045888927 0.030739928
0.017080314 0.045886803 0.03044566
0.018610151 0.04586615 0.030718112
0.021633718 0.04506132 0.031056935
0.022621926 0.044876806 0.030988332
-0.022626756 0.046948981 0.030956553
-0.021598129 0.047030907 0.031075494
-0.018961258 0.046198722 0.031039327
-0.017043909 0.04604261 0.031061992
-0.015258005 0.04606735 0.030855708
-0.012567297 0.04608063 0.030583851
-0.011339827 0.04604226 0.030649913
-0.0089876195 0.046379432 0.031266157
-0.0071150498 0.046931908 0.031157006
-0.0054558595 0.046783585 0.030909544
-0.0027835781 0.046043798 0.030776264
-0.0013390216 0.046054613 0.03130196
0.00094565813 0.046046175 0.031259384
0.0028049678 0.046055008 0.030867683
0.0047643739 0.046061445 0.030704543
0.0070154355 0.046810128 0.030639835
0.0085782018 0.046646494 0.030781647
0.01103267 0.046061486 0.0306562
0.012597029 0.046054315 0.030726546
0.015270459 0.046072923 0.030840611
0.017103251 0.046043433 0.03091681
0.01890211 0.046044078 0.031230383
0.021572104 0.046838012 0.031035006
0.022596098 0.046971597 0.0309583
-0.022592509 0.049133532 0.030899756
-0.02113989 0.049539391 0.031028586
-0.018953038 0.049742311 0.031011453
-0.017002381 0.04976071 0.031109046
-0.01505839 0.049741793 0.031017995
-0.012959738 0.049731869 0.030955469
-0.010931546 0.049761627 0.030978793
-0.0089923143 0.049729157 0.030964436
-0.0069439467 0.049653508 0.030996837
-0.0050390726 0.049704891 0.031021232
-0.0030331563 0.049735632 0.030940659
-0.0010112753 0.049734067 0.03100761
0.00091316603 0.049718581 0.031008698
0.0030672206 0.049741812 0.030935494
0.0050007645 0.049741331 0.031014506
0.0069414773 0.049665552 0.030993454
0.0089002922 0.049610291 0.030924413
0.010977865 0.049755838 0.030977927
0.013039436 0.04973891 0.03095331
0.015037516 0.04975554 0.031056369
0.016957037 0.049743373 0.031056069
0.019002434 0.049759444 0.031007277
0.021253249 0.049531594 0.031086445
0.022553561 0.049174115 0.03091131
-0.022758977 0.050084908 0.03085042
-0.021014234 0.050046414 0.031143399
-0.019217202 0.050042663 0.030595733
-0.016990496 0.050050557 0.030764684
-0.014911248 0.050074186 0.030977897
-0.013083884 0.050070837 0.030744303
-0.010847366 0.050033469 0.030789921
-0.0088584004 0.050051335 0.030675916
-0.007120783 0.050056983 0.030832676
-0.0049737203 0.050042305 0.031089582
-0.0032813246 0.050041553 0.030877374
-0.00099824171 0.050034761 0.031008514
0.0011310489 0.050033528 0.03098019
0.0033124951 0.05004907 0.030934395
0.004849453 0.050033543 0.030987643
0.0068466412 0.05005794 0.031004569
0.0090323323 0.050031327 0.030699864
0.011072637 0.050032794 0.030789783
0.013131707 0.050062969 0.030666063
0.014877005 0.05008138 0.031010484
0.017197086 0.050050084 0.03076072
0.019444138 0.050041001 0.0305926
0.021084787 0.050051309 0.031089079
0.022868019 0.050083775 0.031165052
0.0066800858 -0.048000574 0.033081144
-0.022673735 -0.047006659 0.03306549
-0.021166483 -0.047400128 0.033058364
-0.019888807 -0.046721965 0.033327132
-0.0084988894 -0.047002118 0.032950565
-0.0070310659 -0.047401819 0.033105556
-0.0056709452 -0.04693374 0.033024937
0.0056530368 -0.046911474 0.033009857
0.0070442711 -0.047454707 0.033053122
0.0085674999 -0.047044318 0.033032067
0.019827088 -0.046846151 0.032829359
0.021074831 -0.04729585 0.032987129
0.02258357 -0.047059964 0.033029392
-0.022676844 -0.045008726 0.033049829
-0.02098614 -0.044895899 0.033104517
-0.019457392 -0.044616129 0.033086244
-0.01714462 -0.044123087 0.032945026
-0.015036397 -0.044132892 0.03302278
-0.012934089 -0.044133972 0.032987516
-0.011053594 -0.044123162 0.033033382
-0.0088973511 -0.044694982 0.032936551
-0.0067864098 -0.044900462 0.033086065
-0.0053404439 -0.044642031 0.033035669
-0.0030479433 -0.044133037 0.032933813
-0.00098344078 -0.044125259 0.033114057
0.00090240978 -0.044133462 0.033154737
0.002944842 -0.044139631 0.032902848
0.005150055 -0.044624791 0.032979682
0.0068695657 -0.044991788 0.032993644
0.008909855 -0.044685185 0.032946877
0.011060178 -0.044124357 0.033104032
0.013047229 -0.044130396 0.0329687
0.01508149 -0.044124208 0.032966301
0.016912561 -0.044135366 0.03296129
0.019330448 -0.044478491 0.032946996
0.020890415 -0.045007076 0.0329124
0.022706117 -0.045026522 0.033040248
-0.022704801 -0.043047391 0.033043858
-0.021412063 -0.043157253 0.032930743
-0.018938484 -0.043872055 0.032923136
-0.016844274 -0.043897353 0.033004519
-0.015020781 -0.043879058 0.032902796
-0.01299912 -0.043871388 0.03312977
-0.011108978 -0.04387515 0.033074558
-0.0090388414 -0.043873366 0.033002932
-0.0066387388 -0.043825012 0.032867365
-0.0049302238 -0.043886915 0.032797571
-0.0030290098 -0.043884803 0.033053432
-0.00095209671 -0.043853465 0.033063248
0.00093003601 -0.043868486 0.033129442
0.0031281312 -0.04388858 0.033017311
0.0050956337 -0.043890145 0.032948349
0.0065842369 -0.043847233 0.032983318
0.0092013273 -0.043873213 0.033064231
0.011054993 -0.043883264 0.032946762
0.012941754 -0.043871388 0.033197105
0.014929271 -0.043872245 0.03290293
0.016925626 -0.043899588 0.032976292
0.018926475 -0.043854441 0.032925561
0.021235574 -0.043390676 0.033053748
0.022675078 -0.043024547 0.033130348
-0.022688475 -0.041097641 0.033012323
-0.021801045 -0.040942695 0.032904893
0.021753889 -0.04079438 0.033171091
0.022674259 -0.041057836 0.032936882
-0.022666423 -0.03905268 0.032938149
-0.021847738 -0.039072912 0.033122808
0.021758312 -0.038989492 0.033415895
0.022707477 -0.039099656 0.033024795
-0.022642143 -0.036911219 0.032927897
-0.021753987 -0.037196364 0.03309207
0.021749077 -0.03701416 0.033398427
0.022697421 -0.037032556 0.033007436
-0.022687888 -0.034997355 0.032982484
-0.021773716 -0.034940116 0.033051174
0.021646881 -0.034812089 0.032999355
0.022710085 -0.03493268 0.033064704
-0.022741079 -0.033040196 0.032981537
-0.021721425 -0.032935154 0.032990452
0.02177 -0.033205301 0.033393696
0.022730162 -0.033010971 0.033043306
-0.022634821 -0.030995751 0.032981917
-0.021795886 -0.03117314 0.033236872
0.021714646 -0.030966977 0.03322174
0.022661706 -0.031055588 0.033045374
-0.022744177 -0.029042207 0.033013988
-0.021828199 -0.028895186 0.033178963
0.021694532 -0.028611431 0.03279034
0.022741674 -0.029083859 0.033024643
-0.022688275 -0.027083315 0.033017468
-0.021729199 -0.027020611 0.033151641
0.021775469 -0.026984071 0.033307388
0.022708086 -0.027020855 0.032946594
-0.022649506 -0.025006035 0.032962427
-0.021832719 -0.025102438 0.032984518
0.021762285 -0.024922777 0.032890119
0.022674499 -0.024989007 0.032977119
-0.022748757 -0.022871334 0.032942545
-0.021748435 -0.022993159 0.032971229
0.021683263 -0.023051852 0.032869987
0.022706386 -0.02296984 0.03300789
-0.022617361 -0.020948565 0.032995988
-0.021780515 -0.020914398 0.032870516
0.021814821 -0.020790927 0.03297589
0.022721391 -0.020964036 0.033000957
-0.022693658 -0.018963043 0.033003081
-0.02178802 -0.019087777 0.032791678
0.02175783 -0.018906744 0.033018705
0.022687804 -0.018970003 0.033019777
-0.022720024 -0.016948007 0.033024069
-0.021801546 -0.01714189 0.033011924
0.021767342 -0.016875144 0.032841519
0.022726523 -0.016932456 0.033047289
-0.022682199 -0.014914659 0.032960117
-0.02178197 -0.014962514 0.03307176
0.021785647 -0.01484839 0.032825414
0.022676924 -0.014928211 0.033051733
-0.02267362 -0.012919258 0.033079039
-0.021730267 -0.013096253 0.03314063
0.021785384 -0.012905403 0.032889165
0.022684196 -0.012993369 0.033120975
-0.022679731 -0.011001038 0.032973431
-0.021793874 -0.011130505 0.033094097
0.021824628 -0.010939697 0.032889731
0.022651894 -0.011005251 0.033024788
-0.022647275 -0.0090108886 0.033023842
-0.02174525 -0.0089706285 0.033084869
0.021785786 -0.0089919074 0.032779604
0.0226267 -0.0090160789 0.032963563
-0.022684362 -0.006971993 0.032996021
-0.02179797 -0.0070685316 0.032928687
0.021749018 -0.0072476505 0.032976676
0.022621894 -0.0069882763 0.032999672
-0.022607356 -0.0049012261 0.032946419
-0.021775946 -0.0047774427 0.032955833
0.021769928 -0.005001578 0.033100214
0.022613844 -0.0050044879 0.032955494
-0.022606989 -0.0030564128 0.033010431
-0.02180963 -0.0029244169 0.03288167
0.021740617 -0.0031972646 0.032998871
0.0226888 -0.0031382821 0.032961644
-0.022630991 -0.0010186827 0.033070602
-0.021802953 -0.0010306198 0.032956328
0.021767901 -0.00098638306 0.032992721
0.022666227 -0.0010177423 0.032946117
-0.022568643 0.0010237066 0.032954805
-0.02183146 0.00081073382 0.032785315
0.021750959 0.00081506692 0.033014558
0.022682598 0.0010015464 0.032870416
-0.02261069 0.0029358922 0.032961003
-0.021784158 0.0031121934 0.032771297
0.021790575 0.003091414 0.033086035
0.022689598 0.0029665206 0.032956578
-0.022608526 0.0049936767 0.033040538
-0.021828214 0.0052644568 0.033004005
0.021803359 0.0049344064 0.032898765
0.022620879 0.0049874345 0.032911722
-0.022566464 0.0070071095 0.032956757
-0.02185381 0.0069634472 0.033147201
0.021818582 0.0069205994 0.032960914
0.022707386 0.0071530328 0.033027034
-0.022654874 0.0090532983 0.033040263
-0.021817334 0.0089357281 0.033207726
0.021814492 0.0092982044 0.032754224
0.022627534 0.009108034 0.032972418
-0.022598756 0.010996696 0.033008136
-0.021815367 0.010927845 0.032980148
0.021798672 0.010979963 0.032762345
0.022655612 0.010931022 0.032978777
-0.022655513 0.012992696 0.032965366
-0.021781195 0.013200033 0.032918658
0.021739766 0.012817621 0.032787714
0.022663565 0.012939869 0.032993108
-0.022643192 0.01496971 0.033030994
-0.021799587 0.014770191 0.033177327
0.021778418 0.014777418 0.032827202
0.022588504 0.014984672 0.033012241
-0.022661649 0.016985079 0.032976575
-0.021823522 0.016844621 0.032951441
0.021779869 0.01681543 0.033097588
0.022606941 0.017062344 0.03307927
-0.022631831 0.01902792 0.032969661
-0.021797458 0.018911975 0.033108927
0.021793641 0.019130979 0.032912649
0.02262987 0.018889453 0.033011287
-0.022659661 0.021053543 0.032970376
-0.021798503 0.020847637 0.032980457
0.021760393 0.020983754 0.03294551
0.022569718 0.020922886 0.03297415
-0.022589592 0.023074269 0.033001382
-0.021807035 0.022861104 0.033031534
0.021817939 0.022912273 0.032996804
0.02259434 0.023029078 0.033028223
-0.02262223 0.025032585 0.032978781
-0.02181047 0.024795936 0.032919392
0.021819793 0.024965754 0.032991529
0.022598781 0.025122674 0.032962549
-0.022597751 0.027081845 0.033015791
-0.021801362 0.026928594 0.032997049
0.021812081 0.027138671 0.033005781
0.022617595 0.026982797 0.033035122
-0.022669123 0.028946104 0.032935731
-0.021834621 0.028724752 0.032997187
0.021802267 0.028943835 0.033167202
0.022626435 0.028966589 0.032946829
-0.022580089 0.031040758 0.032972548
-0.021866165 0.030853547 0.033150312
0.021829545 0.030915411 0.033230349
0.022640187 0.031040097 0.033021886
-0.022639105 0.03308098 0.033021186
-0.021842146 0.033065602 0.033013649
0.021832937 0.033087701 0.033117104
0.022596875 0.033089608 0.033065181
-0.02263036 0.034916159 0.032964326
-0.021864191 0.035021733 0.033121794
0.021837326 0.035269443 0.032974336
0.022598093 0.034980338 0.03298068
-0.022605883 0.036956664 0.033010948
-0.021826502 0.037138749 0.033030681
0.021844454 0.037330285 0.033013545
0.022676656 0.037062772 0.032963961
-0.022568054 0.038986251 0.032945052
-0.021869352 0.039056964 0.03322468
0.021835128 0.038891438 0.032840274
0.022663688 0.039122835 0.033031076
-0.022604125 0.040979538 0.032962564
-0.021843163 0.04091429 0.033202622
0.021833872 0.04082448 0.033071361
0.02263654 0.041082334 0.032977533
-0.022624567 0.043050129 0.033011518
-0.021870468 0.042891055 0.033096474
0.021833014 0.043125346 0.032955073
0.022567764 0.043018971 0.032999862
-0.022576177 0.045002099 0.032973211
-0.021760402 0.045026939 0.032881435
-0.019064792 0.045926787 0.032779187
-0.017017782 0.045884211 0.033258941
-0.014985166 0.04592146 0.032947473
-0.013112614 0.045909647 0.03335711
-0.011294463 0.045914862 0.03363945
-0.0091496138 0.045920432 0.033391248
-0.0064773057 0.045958959 0.032816395
-0.0048069679 0.045910448 0.032973379
-0.0029339876 0.045903061 0.03307816
-0.00086672121 0.045923304 0.033351649
0.00063951541 0.045929197 0.033577695
0.0031533292 0.045910478 0.032827884
0.0050039939 0.045725122 0.033176847
0.0069316267 0.045939803 0.032823812
0.0092300307 0.045649264 0.033113144
0.011141281 0.045925308 0.033472899
0.012982566 0.045918114 0.033493746
0.014879975 0.045919463 0.032898359
0.01696158 0.045901071 0.033220835
0.019131945 0.045934368 0.032944687
0.021400144 0.045363683 0.033033844
0.022579918 0.044937085 0.033030778
-0.022578955 0.046993028 0.032922905
-0.02143448 0.047020324 0.033061948
-0.019313525 0.046340495 0.03240373
-0.01691634 0.046069857 0.032639123
-0.014911996 0.046094604 0.03258419
-0.012958564 0.046052713 0.03267514
-0.011013047 0.046064079 0.03278774
-0.0087784175 0.046293102 0.033139437
-0.006875501 0.046661749 0.032967974
-0.005176608 0.046126939 0.032595702
-0.003007412 0.046071257 0.032567315
-0.00085880078 0.046077862 0.032924037
0.00093664572 0.046087395 0.032886557
0.0031778063 0.046093736 0.032532852
0.0052390401 0.046612423 0.032568362
0.0069252932 0.046731088 0.032890666
0.0088151395 0.046609282 0.032728542
0.010843306 0.046093628 0.032537051
0.0131258 0.046043552 0.032682396
0.014918284 0.046077505 0.032760754
0.017244494 0.046068467 0.032428037
0.019486666 0.046508573 0.032833487
0.021399554 0.047072668 0.033098992
0.022636451 0.046975598 0.032993328
-0.022521291 0.049185727 0.032938994
-0.021155592 0.049599729 0.033019483
-0.019033596 0.049727701 0.033030167
-0.017026111 0.049754307 0.033057645
-0.014994641 0.049749326 0.033068575
-0.012960966 0.049757235 0.032869574
-0.011025763 0.049763113 0.032978185
-0.0090377526 0.049684729 0.033044461
-0.0070576523 0.049663372 0.033018678
-0.0050037303 0.049746782 0.033151958
-0.0030424758 0.049732789 0.032962225
-0.0010269457 0.049760606 0.03297339
0.00095331745 0.049738463 0.033026155
0.0029771128 0.049757343 0.032963894
0.0049497401 0.049709026 0.033062547
0.0070028752 0.049665961 0.033047345
0.0089210141 0.04969056 0.033033665
0.011044439 0.049762219 0.032998398
0.013037405 0.049754042 0.032893341
0.015051072 0.049759984 0.033003483
0.017058883 0.04975399 0.033108763
0.019075731 0.049743228 0.03300285
0.021146638 0.049584571 0.033062369
0.02255349 0.04922913 0.032954745
-0.022683179 0.050048176 0.032993048
-0.02060651 0.050060675 0.032988392
-0.018736836 0.050078642 0.03303881
-0.016859416 0.050076466 0.033360656
-0.015274718 0.050053738 0.033125944
-0.013296166 0.050058555 0.033138726
-0.011002854 0.050060652 0.032955669
-0.0089926114 0.050066125 0.033597007
-0.0070529315 0.05004878 0.033508234
-0.0052197082 0.050060485 0.03308069
-0.0030998273 0.050039541 0.032876164
-0.001275059 0.050024766 0.032996263
0.0013000657 0.050034106 0.033124302
0.0032440273 0.050036289 0.032922391
0.005307531 0.050062854 0.033002954
0.0072155162 0.050043296 0.033557486
0.0085809529 0.050045867 0.03331922
0.010856361 0.050068613 0.033285808
0.013083185 0.050055366 0.033059102
0.014999644 0.050059725 0.03312315
0.016886747 0.050065354 0.03334799
0.018962527 0.050077513 0.033037733
0.020739226 0.050059911 0.033057377
0.022844046 0.05005968 0.033166036
0.0072772349 -0.048000574 0.034872577
-0.022653764 -0.047046166 0.035039395
-0.021123745 -0.047370926 0.034969267
-0.019881338 -0.046801742 0.034906719
-0.0085535282 -0.04708989 0.034906637
-0.0070176437 -0.047418073 0.034977
-0.0056440267 -0.046763588 0.035093691
0.0056463014 -0.046882465 0.035019949
0.0069482066 -0.047366444 0.034969326
0.0084693581 -0.04698965 0.035005305
0.019854348 -0.046766255 0.035000354
0.021120256 -0.04738158 0.034941901
0.02270304 -0.047039609 0.034887005
-0.022656413 -0.045002241 0.035031892
-0.020792883 -0.044881415 0.035216935
-0.019403983 -0.044438068 0.035055332
-0.017039921 -0.044131197 0.034919925
-0.014951047 -0.044157401 0.034857403
-0.012931578 -0.04415087 0.035012603
-0.010913699 -0.044134587 0.034969784
-0.00880918 -0.044773635 0.034854349
-0.0067972629 -0.044897448 0.035064451
-0.0053792675 -0.044638179 0.035048962
-0.0030989207 -0.044151712 0.034829423
-0.0011048237 -0.044135433 0.034939349
0.0008060151 -0.044162493 0.034875758
0.0029525317 -0.044147842 0.034904107
0.0053252522 -0.044612151 0.034944274
0.0068929456 -0.044871502 0.03507629
0.0088666743 -0.044742569 0.034982339
0.011077465 -0.044135526 0.034955639
0.012991064 -0.044153124 0.034936428
0.014945302 -0.044134494 0.034985166
0.016862966 -0.044155311 0.034937706
0.0192772 -0.04448659 0.035017978
0.020899186 -0.0449811 0.03497133
0.022741104 -0.044995844 0.034929208
-0.022708725 -0.043046512 0.034985296
-0.021243334 -0.043360669 0.034982387
-0.018871719 -0.043890007 0.035046317
-0.017011048 -0.043879174 0.035149142
-0.01509786 -0.043876812 0.034900412
-0.013159526 -0.043899305 0.035096034
-0.011064285 -0.043907914 0.035020161
-0.0091859344 -0.043862753 0.034999605
-0.0066763931 -0.043878831 0.034892008
-0.0049544047 -0.043856829 0.034892295
-0.0029747305 -0.043887068 0.035089482
-0.0009763104 -0.043893162 0.034968771
0.00094620755 -0.043908294 0.034978755
0.0030508395 -0.043886892 0.035124656
0.0049658343 -0.043863151 0.03498752
0.0069471449 -0.04387179 0.03491009
0.0091582639 -0.043841142 0.03510271
0.011103297 -0.043913864 0.034968898
0.013260154 -0.043900006 0.035083506
0.015071766 -0.043886196 0.034957379
0.017012605 -0.043877676 0.03507039
0.019014942 -0.043889131 0.035
0.021312943 -0.043417182 0.03518841
0.022771899 -0.043074291 0.034882504
-0.022655891 -0.041086011 0.034971334
-0.021718001 -0.041010067 0.034982219
0.021757906 -0.04111471 0.035142303
0.022754746 -0.041095831 0.034923647
-0.022675162 -0.039108749 0.034925655
-0.021749526 -0.038849331 0.034995873
0.021767952 -0.039033573 0.035243731
0.022740727 -0.038985129 0.03493445
-0.022710901 -0.037104227 0.034820959
-0.021750942 -0.036981206 0.034758016
0.021722315 -0.037041631 0.035094511
0.022757761 -0.037016127 0.034928527
-0.022668684 -0.035034452 0.034887768
-0.021764647 -0.035112027 0.035079181
0.021742728 -0.03499905 0.03540181
0.022731639 -0.034980625 0.034972869
-0.022628529 -0.032969035 0.034924634
-0.021750066 -0.033117574 0.035137281
0.021817107 -0.033238456 0.034880664
0.022731278 -0.032979518 0.035000965
-0.022725718 -0.031000111 0.034975581
-0.021748273 -0.030917086 0.03526086
0.021748653 -0.031069648 0.034953829
0.022717556 -0.031056892 0.035039797
-0.022666872 -0.029061699 0.034924708
-0.02181617 -0.02902434 0.035117015
0.021801481 -0.028840683 0.034842316
0.022669453 -0.029058138 0.035037767
-0.022677198 -0.027067116 0.035015848
-0.021757958 -0.02720283 0.034996137
0.021767197 -0.026914585 0.034964196
0.022713099 -0.026988769 0.034965534
-0.022715595 -0.02496116 0.034998093
-0.021743802 -0.025145238 0.035033785
0.021739574 -0.024859529 0.0346637
0.022722643 -0.024932154 0.034966469
-0.022715319 -0.022920437 0.035013247
-0.021775976 -0.023051975 0.034900501
0.021778718 -0.023116797 0.034758765
0.022633597 -0.022988314 0.034990665
-0.022622745 -0.020972559 0.034961537
-0.021720389 -0.020909302 0.035013601
0.02171411 -0.021164918 0.034713611
0.022726333 -0.020949787 0.03504201
-0.022675943 -0.018991686 0.035015378
-0.021792902 -0.019156082 0.034940727
0.021790346 -0.019045381 0.034836713
0.022694606 -0.018924255 0.035068858
-0.02267321 -0.016951665 0.03498403
-0.021702828 -0.017122759 0.034905922
0.021772154 -0.01679381 0.034904353
0.022635169 -0.017004423 0.03500637
-0.022675902 -0.015034436 0.0349278
-0.021770565 -0.015011815 0.035065778
0.02175572 -0.015011794 0.034801684
0.022716545 -0.015008548 0.034990247
-0.02266001 -0.013076141 0.035014972
-0.021786582 -0.012733826 0.034912787
0.021736288 -0.013328056 0.034941874
0.022688977 -0.01296974 0.035037916
-0.022635875 -0.010959626 0.034914009
-0.021788394 -0.011130305 0.035011865
0.02177616 -0.010996566 0.0350825
0.022715852 -0.010928888 0.034873605
-0.022730164 -0.0089675952 0.034843836
-0.021753624 -0.0090453252 0.034839693
0.021776943 -0.0088068629 0.035089958
0.022716915 -0.0089880787 0.03490008
-0.022714915 -0.0071188621 0.034910079
-0.021781765 -0.0069510667 0.034744807
0.021854183 -0.0068424088 0.035308443
0.022792149 -0.0069609792 0.034947574
-0.022671551 -0.0050073722 0.034938421
-0.021791317 -0.0048335488 0.034700211
0.021812877 -0.0051896772 0.035085153
0.022721285 -0.0049839341 0.034935892
-0.022671897 -0.0029781612 0.034916043
-0.02175572 -0.0027896918 0.034929503
0.021828061 -0.0031064579 0.035196614
0.022709984 -0.0030480879 0.034958668
-0.022689218 -0.00090750621 0.034951009
-0.021804791 -0.00083020225 0.034530953
0.021813864 -0.00083135784 0.035068441
0.022707816 -0.0010777911 0.034964547
-0.022687182 0.0010249151 0.034861822
-0.021731455 0.00091292232 0.034843303
0.021822466 0.00090819527 0.034993257
0.022682963 0.00099193025 0.03497538
-0.022695063 0.0028766668 0.034858573
-0.021774299 0.0030647225 0.034745205
0.021805249 0.0029146879 0.03484216
0.022688763 0.0028406726 0.034957584
-0.022697829 0.0049711624 0.034905642
-0.021765411 0.0052093132 0.034808278
0.021762971 0.005038938 0.034655645
0.022674909 0.0049412469 0.034972806
-0.022703953 0.0070211757 0.034925841
-0.021833315 0.0072531477 0.034838557
0.021731948 0.0070132301 0.034796547
0.022634404 0.0069709467 0.034970656
-0.022649812 0.0090122893 0.034869544
-0.021764422 0.0088950461 0.034702733
0.021796152 0.0090469318 0.034946341
0.0226941 0.0091221295 0.034966744
-0.022641571 0.011056413 0.034857593
-0.021796048 0.011029004 0.034679268
0.021769244 0.011073234 0.035012059
0.022646884 0.011167194 0.035071813
-0.022667332 0.012994587 0.034916312
-0.021803297 0.013246994 0.034722961
0.021802232 0.013000313 0.035072193
0.022684693 0.013056234 0.035057202
-0.022609558 0.014985633 0.03496436
-0.02182949 0.015152251 0.03475656
0.021781569 0.015040323 0.035236355
0.022629589 0.015011821 0.035026502
-0.022670129 0.017050067 0.034985185
-0.021807281 0.017211303 0.034906022
0.02182078 0.016888037 0.035120562
0.022673991 0.017013961 0.035059031
-0.022657262 0.019031165 0.034791034
-0.021833248 0.018996434 0.035165448
0.021794071 0.019040214 0.034950655
0.022667559 0.018983545 0.035001375
-0.022617113 0.021023942 0.034863025
-0.021844419 0.020878313 0.035200153
0.021797962 0.02086599 0.035068624
0.022689357 0.020872397 0.034991909
-0.022611907 0.022837823 0.034851223
-0.021814449 0.022876296 0.035095163
0.021798594 0.022728056 0.034892656
0.022671701 0.022906492 0.034949746
-0.022606436 0.024836984 0.034860119
-0.021818517 0.025018312 0.03505386
0.021797506 0.024909098 0.035067704
0.022635831 0.024941862 0.034948211
-0.022656146 0.026959257 0.034848049
-0.021829782 0.027165521 0.035204414
0.021809783 0.026944257 0.035046667
0.022632368 0.026992714 0.035051063
-0.022628475 0.029016493 0.034812089
-0.021822909 0.029060019 0.035034254
0.021805294 0.029021868 0.035173614
0.022674177 0.028991006 0.034967348
-0.022615932 0.031040639 0.034930207
-0.021808151 0.03119101 0.034989391
0.021842537 0.030808423 0.035241518
0.022611609 0.030933468 0.034978081
-0.022606159 0.032965302 0.034927152
-0.021838255 0.033061609 0.035084039
-0.017283738 0.03234959 0.035994567
3.547312e-05 0.033019584 0.03598398
0.014503248 0.033900436 0.0359754
0.021784671 0.032875303 0.035169296
0.022633815 0.032953925 0.034938812
-0.022636043 0.03495881 0.03497402
-0.021841405 0.035123613 0.035058741
-0.0015101144 0.034870449 0.035994716
0.0045057968 0.034312133 0.035987452
0.01600546 0.035567395 0.035982613
0.019261684 0.035616316 0.035968117
0.021806587 0.035143163 0.035083726
0.022652106 0.034947984 0.03498413
-0.022631543 0.036946133 0.034968045
-0.021871589 0.037030254 0.035021845
0.0032198532 0.036318712 0.035999782
0.0042435564 0.036370855 0.035995275
0.014268321 0.037389584 0.035993945
0.017483728 0.037207831 0.03598975
0.021842496 0.037282329 0.035015572
0.022601165 0.03696439 0.034910601
-0.022655284 0.038999587 0.034926325
-0.021866767 0.038871121 0.035184029
0.019033814 0.038484488 0.035983149
0.021831362 0.038940616 0.034862358
0.022635326 0.039045971 0.034910679
-0.022664199 0.040976323 0.034987684
-0.021844767 0.04088816 0.035011943
0.015940022 0.041325226 0.035992932
0.019005064 0.040384408 0.035980985
0.021846522 0.040904664 0.034945734
0.022624943 0.041109271 0.034909189
-0.022639045 0.042974722 0.034918342
-0.021881364 0.043063927 0.034999438
0.017479729 0.043529443 0.035999514
0.018883886 0.042571358 0.035992097
0.021765048 0.042843774 0.035011522
0.022585124 0.04305974 0.034872562
-0.022662284 0.04492484 0.034899544
-0.02169382 0.045280214 0.034851369
-0.019029832 0.045741484 0.035113551
-0.016962053 0.045755632 0.035153791
-0.015168718 0.045768391 0.035020012
-0.013259836 0.045586832 0.035259828
-0.010967442 0.045647275 0.035250813
-0.0090271048 0.045600321 0.035251025
-0.00706138 0.045631651 0.035459947
-0.0050472771 0.045751553 0.035165943
-0.0030519064 0.045785826 0.035174545
-0.0010550964 0.045657348 0.034950953
0.0010649735 0.045604963 0.03510436
0.0031028169 0.045707796 0.035281301
0.0049924944 0.045388997 0.035451632
0.0074901925 0.045221604 0.035505813
0.0090663806 0.045766447 0.035028309
0.01100839 0.045808319 0.03498137
0.012924666 0.045698777 0.035104766
0.015079215 0.045702621 0.03508085
0.017104816 0.045742083 0.035082351
0.018814484 0.045552205 0.035356797
0.021654485 0.044942409 0.03506802
0.022693038 0.04495864 0.034961488
-0.02265607 0.046941202 0.034909282
-0.021586772 0.047008522 0.035179075
-0.017100008 0.046029389 0.035469517
-0.01513597 0.046026077 0.035216965
-0.013207426 0.046021141 0.03483196
-0.011212435 0.046021342 0.034273576
-0.0083639082 0.046784118 0.035079122
-0.0071038506 0.04682098 0.035166051
-0.0051433318 0.046540879 0.035193548
-0.0030848891 0.046057351 0.035291679
-0.0019178292 0.046077631 0.034180004
0.0028674067 0.046078458 0.034386687
0.0053973193 0.046520703 0.035203222
0.0068963179 0.046934444 0.034990102
0.0085594421 0.046327125 0.035193741
0.01076837 0.046018958 0.034096733
0.0127636 0.046018943 0.034654379
0.015115228 0.046027165 0.035095725
0.016923938 0.046021055 0.035580993
0.019986048 0.046860352 0.035627618
0.021475604 0.046955872 0.035081916
0.022628479 0.046990216 0.034956615
-0.022600217 0.049130846 0.034929834
-0.021154067 0.04952221 0.034942932
-0.019053534 0.049727175 0.034977391
-0.016988253 0.049752228 0.034928754
-0.014966411 0.049741179 0.034896798
-0.012918632 0.049746808 0.034931045
-0.01104011 0.049758282 0.034949057
-0.0089433566 0.049617905 0.03496116
-0.0069298954 0.049654853 0.034995951
-0.0050635953 0.049726132 0.034954939
-0.0030372422 0.049747933 0.034876838
-0.00099471677 0.049745589 0.035062149
0.00084189948 0.049738679 0.034975111
0.0030065072 0.049742587 0.034889396
0.0050473437 0.049707312 0.034985311
0.0069649373 0.049612153 0.035008281
0.0090460153 0.049701769 0.034913648
0.011102914 0.049761992 0.034944102
0.013002547 0.049745366 0.034927052
0.015023467 0.049762059 0.034958098
0.016965261 0.049731258 0.034862526
0.018999478 0.049724814 0.034961335
0.021060973 0.049548179 0.035011888
0.022637753 0.049125332 0.034927804
-0.023060566 0.050061688 0.034988213
-0.020866992 0.050073501 0.03511231
-0.019016067 0.050058365 0.034955721
-0.016805083 0.050065473 0.03502135
-0.014754914 0.050050564 0.035191305
-0.013102929 0.050040845 0.034855746
-0.010873787 0.050036415 0.034931615
-0.0089043267 0.050038036 0.035207484
-0.0074023502 0.050035954 0.035264533
-0.0053206119 0.050018031 0.035120774
-0.0025387555 0.050028831 0.03483402
-0.00084741728 0.050042883 0.035194211
0.00096343528 0.050039545 0.035208907
0.0027653971 0.050028037 0.034833487
0.0055447938 0.05001767 0.035120733
0.0074539604 0.050029673 0.035289474
0.0089011397 0.050036512 0.035202879
0.011021753 0.050036147 0.034949549
0.013179646 0.050041158 0.034993026
0.014804756 0.050052393 0.035059176
0.01683918 0.050055176 0.03508316
0.019168681 0.050055049 0.034951761
0.020793632 0.050085906 0.035059508
0.02275745 0.050079018 0.035009325
0.0072772349 -0.048000574 0.037261151
-0.022612205 -0.047003083 0.037122503
-0.021141963 -0.047335334 0.037044611
-0.019836206 -0.046994634 0.036929686
-0.0085736122 -0.04704218 0.036911834
-0.0070500481 -0.047510929 0.036948327
-0.0056518735 -0.046803534 0.036976229
0.0056717531 -0.047042985 0.036999334
0.0070031383 -0.047473859 0.037001435
0.0084802201 -0.04703597 0.037011743
0.019846754 -0.046818674 0.037388608
0.021176744 -0.047420584 0.037022434
0.02261989 -0.04700968 0.037133623
-0.022674641 -0.045034014 0.037108887
-0.020915695 -0.044963375 0.037074368
-0.019336112 -0.044675291 0.036869425
-0.017142521 -0.044140134 0.036723007
-0.015164806 -0.044152018 0.036580872
-0.012923578 -0.044156544 0.036648903
-0.010759111 -0.044142399 0.03686953
-0.0088561112 -0.044798788 0.036880337
-0.0069290008 -0.045016773 0.03677598
-0.0053729685 -0.044708196 0.036880158
-0.0030087586 -0.044157065 0.036568098
-0.00092813309 -0.044136342 0.036470432
0.00087787409 -0.044148095 0.036576688
0.0031057138 -0.044163901 0.036475819
0.0053566741 -0.044770434 0.036968149
0.0068920352 -0.045176268 0.037078049
0.0088363085 -0.044793479 0.037024803
0.011292563 -0.044139352 0.036591999
0.013113204 -0.044168931 0.03682236
0.015026647 -0.044135213 0.03665448
0.01696475 -0.044165485 0.036770396
0.019420434 -0.044597857 0.037139427
0.020859489 -0.045152809 0.037035841
0.022683991 -0.045044061 0.036990579
-0.022682708 -0.043044861 0.037142411
-0.021167628 -0.043285694 0.037025321
-0.018946266 -0.043416709 0.037271678
-0.016967798 -0.043341342 0.037141606
-0.015015104 -0.043440521 0.036918972
-0.012983955 -0.043327898 0.036895242
-0.011064433 -0.043427065 0.036991231
-0.0089498116 -0.043429762 0.03713344
-0.0064395554 -0.043645956 0.037037317
-0.0048868423 -0.043514326 0.037168376
-0.0031651214 -0.043410536 0.03717332
-0.00092861714 -0.043377444 0.036900677
0.00095645565 -0.043427274 0.036811259
0.0030752672 -0.043319117 0.037125707
0.0051233815 -0.043537814 0.037136532
0.0068279952 -0.043565724 0.037326906
0.0089705773 -0.043556545 0.037085876
0.01100133 -0.043427888 0.037038244
0.012913074 -0.043461151 0.036908962
0.014991664 -0.04347999 0.03697006
0.017131796 -0.043153942 0.036989104
0.019032538 -0.043540403 0.037083521
0.020969454 -0.043127786 0.037059307
0.02273074 -0.043116767 0.036983684
-0.02260457 -0.040992904 0.03707274
-0.021628315 -0.04103028 0.036971752
-0.018519023 -0.041107338 0.037484661
-0.016973455 -0.041303895 0.03725243
-0.01499809 -0.041207131 0.037313987
-0.013000906 -0.041350782 0.037322279
-0.011490834 -0.041166104 0.037122142
-0.0088474574 -0.040771831 0.036708888
-0.0079003545 -0.040302292 0.037549868
-0.0049077515 -0.041274529 0.037687894
-0.003121133 -0.041162882 0.037563678
-0.0011407819 -0.040926315 0.03716138
0.0010355868 -0.041316573 0.037243403
0.0028219223 -0.040841702 0.037122764
0.0048924922 -0.041518424 0.036816463
0.00606615 -0.041386273 0.037219908
0.00861225 -0.040798396 0.037681326
0.011113178 -0.04129611 0.037463691
0.01307704 -0.041096427 0.037134595
0.014970005 -0.041325837 0.037206933
0.016822141 -0.041284673 0.037259284
0.019780889 -0.040719688 0.037413582
0.021242676 -0.041294228 0.037042949
0.022679863 -0.041037638 0.037071768
-0.022662081 -0.038959157 0.037070047
-0.021676578 -0.038883291 0.036915462
-0.018328145 -0.039087702 0.037536506
-0.016917348 -0.039341934 0.037524324
-0.015130256 -0.039106499 0.037414625
-0.01282998 -0.039718967 0.03719046
-0.011510095 -0.039193723 0.036978453
-0.0089151207 -0.038993295 0.03691243
-0.0060881679 -0.038784496 0.037236713
-0.0050697294 -0.039146587 0.037677344
-0.0030658375 -0.03908357 0.037587836
-0.0012905515 -0.039135873 0.037406184
0.00088460062 -0.039410908 0.037353255
0.0031474652 -0.038781513 0.036640938
0.005146191 -0.038910896 0.036807101
0.0088431528 -0.038729001 0.037699278
0.011055323 -0.03943963 0.037521299
0.012791738 -0.039368358 0.037362214
0.014818464 -0.039275154 0.037344351
0.017053263 -0.03903443 0.037249684
0.019785648 -0.03901419 0.037052646
0.021708561 -0.039170425 0.036726862
0.022720248 -0.039033011 0.036959428
-0.02266006 -0.037003018 0.037051167
-0.021734396 -0.037169952 0.03689279
-0.018600978 -0.036518123 0.037796479
-0.016767271 -0.036637545 0.037112486
-0.015795317 -0.036608741 0.037780896
-0.012866612 -0.037465598 0.036942799
-0.010869606 -0.036804032 0.036838796
-0.0088321939 -0.03677737 0.037293494
-0.0060944748 -0.037207954 0.037236642
-0.0044138632 -0.037185006 0.037236415
-0.0032631827 -0.037030477 0.037226915
-0.00084175507 -0.037414409 0.037289128
0.00070973113 -0.037377257 0.036838006
0.0029044813 -0.036947962 0.037013236
0.0052826521 -0.037192121 0.037057135
0.0091733653 -0.036916044 0.03750686
0.010870836 -0.037013154 0.037464648
0.012528675 -0.037210543 0.03774453
0.015364382 -0.036622807 0.037436556
0.017903637 -0.036521196 0.036848255
0.019803692 -0.037198734 0.037464909
0.02155751 -0.037431426 0.036968682
0.022700394 -0.037098967 0.037044812
-0.022649284 -0.035062756 0.037088249
-0.021624086 -0.035067059 0.037013069
-0.018608784 -0.035385061 0.037403535
-0.017091433 -0.035169769 0.03748928
-0.014982815 -0.035231695 0.037425511
-0.012705822 -0.035423283 0.037087921
-0.010634693 -0.035461433 0.036838379
-0.0091050034 -0.034571234 0.036672879
-0.0063772951 -0.035510659 0.037547883
-0.0050598122 -0.035525795 0.037662163
-0.0033302314 -0.035258364 0.037627149
-0.0012531729 -0.035082359 0.037411232
0.00074791373 -0.035539411 0.037422724
0.0030017265 -0.035128877 0.037065499
0.0049393466 -0.035206906 0.037395697
0.0092721907 -0.035077799 0.037615675
0.010922891 -0.03522696 0.037584733
0.012939165 -0.035504986 0.03747024
0.014887812 -0.035242066 0.037423316
0.017154636 -0.03493261 0.037080631
0.019470926 -0.035142273 0.03735172
0.021550192 -0.035277855 0.037344784
0.022672167 -0.035087872 0.037033334
-0.022676082 -0.03304632 0.036982089
-0.021704078 -0.032902159 0.037076727
-0.019256091 -0.033129804 0.037801456
-0.016571 -0.033181213 0.037074462
-0.014796088 -0.032795787 0.036253314
-0.012940069 -0.033554226 0.036368161
-0.010894656 -0.033352196 0.036655311
-0.0054281442 -0.032178815 0.037612446
-0.0027901335 -0.033284716 0.037452377
-0.0014487362 -0.033570569 0.037129361
0.0011181311 -0.032583326 0.037787564
0.0029097602 -0.033292044 0.036849961
0.0047723423 -0.032515537 0.037141811
0.010513325 -0.033329457 0.037694838
0.012939184 -0.033507511 0.037615668
0.014991867 -0.033293448 0.037233129
0.016229372 -0.032890052 0.037659261
0.019337231 -0.032498796 0.037305817
0.021679403 -0.033046588 0.037046988
0.022744274 -0.032944143 0.037008666
-0.022580855 -0.031021845 0.037185077
-0.021706128 -0.030807866 0.036751248
-0.017144397 -0.030079752 0.037293892
-0.015212323 -0.03169867 0.037462451
-0.012609528 -0.031913139 0.037018634
-0.011087668 -0.031792976 0.037018571
-0.0087499283 -0.03144525 0.037454437
-0.005782892 -0.030560788 0.037434049
-0.0013890123 -0.030079752 0.037293892
0.00011153465 -0.030079752 0.037293892
0.0029354426 -0.0306856 0.037017662
0.0050653359 -0.030620418 0.037185121
0.0093601812 -0.031570941 0.037603937
0.01139367 -0.03191258 0.037418824
0.013621368 -0.031695575 0.037126169
0.015009291 -0.030890794 0.037537031
0.016617164 -0.030079752 0.037293892
0.021825012 -0.030965406 0.036870316
0.022726538 -0.030921681 0.037036583
-0.022693757 -0.028993744 0.037023757
-0.021809932 -0.029082593 0.036895022
-0.016471013 -0.028472977 0.037295803
0.015186503 -0.028473008 0.037295856
0.019973859 -0.028951099 0.037206154
0.021720564 -0.029070115 0.036975306
0.022731407 -0.028914239 0.036990449
-0.022698354 -0.026996303 0.037047643
-0.021773165 -0.027141051 0.037066821
-0.012706768 -0.027804296 0.037416425
-0.010608323 -0.027803456 0.037401181
-0.0092000877 -0.027803531 0.037390959
0.0030672806 -0.027799074 0.037301641
0.00528742 -0.027798062 0.037285488
0.018987028 -0.027792174 0.03718574
0.021842681 -0.027082641 0.037187859
0.022742424 -0.027035473 0.036989108
-0.022596342 -0.025020592 0.037016012
-0.021784497 -0.024776839 0.036910605
0.021770887 -0.024908055 0.036838911
0.022718538 -0.025048636 0.036970459
-0.022672076 -0.023011615 0.036997207
-0.021747278 -0.022809839 0.036773827
0.021738512 -0.023174932 0.03701929
0.022717344 -0.022953607 0.036944591
-0.022614196 -0.020950137 0.036986347
-0.021790994 -0.020869844 0.0369462
0.021747973 -0.02093499 0.036926933
0.022730526 -0.020966802 0.037036419
-0.022665713 -0.018970594 0.036983825
-0.021789825 -0.018721953 0.036822718
0.021765908 -0.019028995 0.036933716
0.022730563 -0.018977897 0.036965206
-0.022665648 -0.01704355 0.036886979
-0.0218057 -0.016869605 0.036963813
0.021765245 -0.017024158 0.036983557
0.022688521 -0.017014747 0.036992144
-0.022638179 -0.015025537 0.03694506
-0.021798983 -0.015167533 0.036872018
0.021792026 -0.015089794 0.03693182
0.022731375 -0.01502323 0.036989693
-0.022673106 -0.013017938 0.036949165
-0.021760993 -0.013017613 0.036842205
0.021762587 -0.0129933 0.036738291
0.022685407 -0.012990524 0.037076529
-0.022596013 -0.010988711 0.03690454
-0.021771779 -0.010793538 0.036808815
0.021788023 -0.011296841 0.036815938
0.022696728 -0.010966106 0.037029736
-0.022657048 -0.0090498105 0.036913268
-0.02177351 -0.0090309484 0.036739718
0.021819394 -0.0091725513 0.037076905
0.022669816 -0.0090383124 0.037074026
-0.022641176 -0.0069930926 0.036922902
-0.021806197 -0.0070108022 0.036615215
0.021752397 -0.0070390399 0.037095603
0.022705767 -0.0069711967 0.037091225
-0.022643365 -0.0049648159 0.036901485
-0.021766722 -0.0050091525 0.036707204
0.021803208 -0.0050031766 0.037371673
0.022690877 -0.0049580941 0.037029684
